2510,2510,2497,2497,2497,2497,2497,2497,2497,2504,2510,2510,2510,2504,2504,2504,2504,2497,2491,2491,2491,2497,2497,2497,2497,2497,2504,2504,2504,2504,2504,2504,2504,2504,2497,2491,2491,2491,2491,2491,2491,2491,2491,2491,2491,2491,2491,2491,2491,2491,2491,2485,2485,2485,2491,2491,2485,2491,2491,2497,2491,2491,2491,2491,2491,2491,2491,2491,2491,2491,2491,2491,2491,2491,2491,2491,2485,2485,2485,2485,2485,2485,2479,2479,2479,2479,2479,2485,2479,2479,2479,2485,2485,2479,2479,2479,2479,2479,2479,2473,2479,2473,2473,2473,2473,2473,2473,2473,2473,2473,2473,2467,2467,2467,2461,2461,2467,2467,2467,2467,2467,2467,2461,2467,2467,2461,2461,2461,2461,2467,2467,2467,2467,2473,2473,2479,2479,2479,2479,2479,2473,2479,2479,2473,2467,2461,2461,2455,2455,2450,2450,2455,2455,2450,2450,2450,2450,2450,2450,2450,2444,2450,2444,2444,2444,2444,2444,2444,2450,2450,2444,2438,2438,2438,2438,2438,2438,2438,2438,2444,2444,2444,2444,2444,2444,2444,2444,2444,2444,2444,2438,2438,2438,2438,2438,2432,2432,2432,2432,2426,2432,2432,2432,2426,2426,2426,2426,2426,2426,2426,2426,2426,2426,2426,2426,2426,2426,2421,2432,2432,2432,2426,2421,2421,2421,2421,2421,2415,2415,2415,2415,2421,2415,2415,2421,2421,2426,2421,2421,2421,2421,2426,2426,2415,2415,2409,2403,2403,2398,2398,2392,2392,2398,2403,2403,2403,2403,2403,2409,2415,2421,2421,2421,2426,2426,2432,2432,2438,2432,2432,2426,2426,2426,2421,2421,2415,2415,2409,2409,2403,2403,2398,2392,2392,2387,2381,2381,2381,2375,2381,2381,2381,2381,2387,2387,2387,2387,2387,2381,2381,2381,2381,2381,2381,2381,2387,2392,2392,2392,2392,2392,2392,2392,2392,2392,2392,2387,2387,2387,2387,2387,2392,2392,2392,2398,2398,2403,2403,2409,2403,2403,2403,2398,2398,2398,2392,2392,2392,2392,2392,2387,2387,2381,2381,2381,2375,2375,2375,2370,2375,2375,2370,2370,2370,2375,2375,2375,2381,2381,2381,2381,2381,2381,2387,2381,2381,2375,2381,2381,2381,2387,2387,2381,2381,2375,2375,2370,2370,2364,2359,2359,2359,2364,2364,2370,2375,2375,2375,2375,2375,2375,2375,2370,2370,2370,2370,2375,2375,2370,2370,2370,2364,2359,2359,2354,2354,2354,2354,2354,2354,2354,2354,2354,2348,2348,2348,2343,2348,2354,2348,2348,2354,2354,2354,2354,2354,2359,2359,2364,2364,2359,2359,2359,2359,2359,2354,2348,2343,2343,2337,2337,2332,2332,2332,2332,2327,2327,2332,2332,2332,2332,2337,2337,2337,2337,2337,2337,2332,2332,2332,2332,2332,2332,2332,2327,2332,2332,2327,2327,2327,2327,2332,2332,2327,2327,2327,2321,2321,2321,2316,2316,2316,2316,2316,2316,2316,2321,2321,2321,2321,2321,2321,2316,2316,2316,2311,2311,2311,2306,2306,2311,2311,2311,2311,2311,2311,2316,2311,2311,2311,2311,2311,2311,2311,2311,2306,2306,2311,2311,2311,2311,2306,2306,2301,2306,2301,2295,2301,2295,2295,2295,2295,2290,2285,2280,2275,2265,2260,2255,2255,2255,2255,2250,2245,2245,2245,2250,2245,2235,2230,2230,2225,2225,2221,2211,2206,2201,2197,2192,2183,2173,2164,2159,2155,2155,2146,2141,2141,2132,2132,2128,2124,2119,2110,2106,2097,2093,2085,2080,2072,2059,2059,2059,2068,2068,2072,2072,2076,2080,2076,2072,2063,2051,2047,2043,2039,2039,2035,2031,2031,2023,2023,2019,2015,2007,2003,1995,1995,1983,1979,1968,1964,1964,1960,1960,1960,1960,1960,0,0,0,0
2516,2516,2504,2504,2504,2510,2510,2510,2516,2516,2522,2516,2516,2510,2510,2504,2504,2497,2491,2491,2497,2497,2497,2497,2504,2497,2504,2504,2504,2504,2510,2510,2510,2510,2510,2504,2504,2504,2497,2497,2497,2491,2491,2491,2491,2491,2491,2491,2491,2497,2491,2497,2497,2497,2504,2504,2504,2504,2504,2504,2504,2504,2504,2497,2497,2497,2497,2497,2497,2497,2497,2497,2497,2497,2497,2497,2497,2491,2491,2491,2491,2491,2491,2485,2485,2491,2491,2491,2485,2485,2485,2485,2485,2485,2479,2479,2479,2479,2485,2479,2485,2479,2479,2479,2479,2479,2479,2473,2473,2473,2473,2473,2467,2473,2473,2473,2473,2479,2473,2473,2473,2473,2473,2473,2473,2473,2467,2467,2467,2473,2473,2473,2473,2479,2479,2479,2485,2485,2479,2479,2479,2479,2479,2473,2467,2467,2461,2461,2461,2455,2455,2455,2455,2455,2455,2455,2455,2455,2455,2455,2450,2450,2450,2450,2455,2455,2450,2450,2455,2455,2455,2450,2450,2444,2444,2444,2444,2444,2444,2450,2450,2450,2450,2450,2450,2450,2450,2450,2450,2444,2444,2444,2444,2438,2438,2438,2438,2432,2432,2432,2432,2438,2438,2432,2432,2432,2432,2432,2432,2432,2426,2426,2426,2426,2426,2432,2426,2432,2432,2438,2432,2432,2426,2426,2426,2426,2421,2421,2421,2421,2421,2426,2421,2421,2426,2426,2426,2426,2426,2421,2421,2426,2426,2415,2415,2409,2409,2409,2409,2403,2403,2403,2409,2415,2415,2415,2409,2409,2415,2421,2426,2426,2426,2426,2432,2438,2438,2438,2438,2432,2432,2426,2426,2426,2421,2415,2415,2415,2409,2409,2403,2398,2398,2398,2392,2387,2381,2381,2375,2381,2381,2381,2381,2387,2387,2387,2392,2387,2387,2381,2381,2381,2381,2387,2387,2387,2392,2392,2398,2392,2392,2392,2392,2392,2398,2392,2392,2392,2392,2392,2392,2398,2398,2398,2403,2403,2409,2409,2409,2409,2403,2403,2403,2403,2398,2398,2398,2398,2398,2398,2392,2392,2387,2387,2387,2381,2381,2381,2381,2381,2381,2381,2375,2375,2375,2375,2375,2381,2381,2381,2381,2381,2387,2387,2381,2381,2381,2381,2387,2387,2387,2387,2387,2387,2381,2381,2381,2375,2370,2364,2364,2364,2364,2375,2375,2375,2375,2375,2381,2381,2381,2381,2375,2375,2375,2375,2375,2375,2375,2375,2370,2370,2364,2364,2359,2359,2359,2364,2359,2354,2354,2354,2354,2354,2354,2348,2348,2354,2354,2354,2354,2359,2359,2359,2359,2364,2364,2364,2370,2370,2364,2364,2364,2364,2364,2359,2354,2348,2343,2343,2337,2337,2332,2332,2337,2332,2332,2332,2337,2337,2337,2343,2337,2343,2343,2343,2337,2332,2332,2332,2332,2332,2332,2332,2327,2332,2332,2327,2327,2332,2332,2337,2337,2337,2332,2332,2332,2327,2327,2321,2316,2316,2321,2321,2316,2321,2321,2321,2327,2321,2327,2321,2321,2321,2316,2316,2316,2311,2311,2311,2311,2316,2311,2311,2311,2316,2316,2316,2316,2311,2311,2311,2311,2311,2311,2311,2311,2311,2311,2311,2311,2311,2311,2311,2306,2306,2301,2301,2301,2301,2295,2295,2290,2280,2280,2270,2260,2255,2250,2250,2250,2250,2250,2245,2245,2245,2245,2240,2235,2230,2230,2225,2225,2221,2211,2206,2201,2192,2192,2183,2173,2164,2159,2155,2150,2146,2141,2137,2132,2132,2128,2124,2119,2110,2106,2093,2093,2085,2080,2072,2063,2059,2059,2059,2063,2068,2068,2072,2076,2072,2063,2055,2047,2043,2039,2035,2035,2031,2031,2027,2023,2019,2019,2011,2007,2003,1995,1995,1983,1976,1968,1964,1964,1960,1960,1960,1960,1957,0,0,0,0
2528,2522,2510,2510,2516,2522,2522,2516,2522,2522,2522,2522,2522,2516,2510,2510,2510,2504,2504,2504,2504,2504,2504,2504,2504,2504,2504,2510,2510,2510,2510,2516,2516,2516,2510,2510,2504,2504,2504,2504,2497,2497,2497,2497,2497,2497,2497,2497,2497,2497,2504,2504,2504,2504,2510,2516,2516,2510,2510,2510,2504,2504,2504,2504,2497,2497,2497,2497,2497,2504,2497,2497,2497,2504,2497,2497,2497,2497,2497,2497,2504,2497,2497,2497,2491,2497,2497,2491,2491,2491,2491,2491,2491,2491,2485,2485,2485,2485,2485,2485,2485,2485,2485,2485,2485,2479,2479,2479,2479,2479,2479,2479,2473,2473,2479,2479,2479,2479,2479,2479,2473,2479,2473,2473,2473,2473,2473,2473,2473,2473,2479,2479,2479,2479,2485,2485,2491,2491,2485,2485,2485,2479,2479,2473,2473,2467,2467,2461,2467,2461,2461,2461,2461,2461,2461,2461,2461,2461,2461,2461,2455,2455,2455,2455,2455,2461,2455,2455,2455,2461,2461,2455,2455,2450,2450,2450,2450,2450,2450,2450,2455,2455,2455,2455,2455,2450,2450,2450,2450,2450,2444,2450,2450,2444,2444,2438,2438,2438,2438,2432,2438,2438,2438,2438,2438,2432,2432,2432,2432,2432,2432,2432,2432,2432,2438,2438,2438,2438,2438,2438,2438,2432,2426,2426,2432,2432,2426,2426,2426,2426,2432,2432,2432,2426,2432,2432,2426,2426,2426,2421,2421,2426,2426,2415,2415,2415,2415,2415,2415,2415,2409,2415,2421,2421,2421,2421,2415,2421,2421,2426,2432,2432,2432,2432,2432,2438,2438,2438,2438,2432,2432,2432,2426,2426,2421,2421,2421,2415,2415,2409,2409,2403,2398,2398,2392,2387,2381,2381,2375,2381,2381,2381,2381,2387,2392,2392,2392,2392,2387,2387,2387,2387,2387,2387,2387,2392,2392,2398,2398,2398,2398,2392,2392,2398,2398,2398,2398,2398,2398,2398,2398,2403,2403,2403,2403,2409,2409,2415,2415,2415,2409,2409,2409,2403,2403,2403,2403,2403,2403,2403,2398,2398,2392,2392,2387,2387,2387,2387,2387,2387,2387,2387,2387,2387,2387,2381,2381,2387,2387,2387,2387,2387,2387,2387,2387,2387,2387,2387,2387,2392,2392,2392,2392,2392,2392,2387,2387,2381,2375,2370,2370,2370,2370,2375,2375,2375,2381,2381,2387,2392,2387,2387,2387,2387,2381,2381,2381,2381,2375,2375,2375,2375,2375,2375,2370,2370,2370,2370,2370,2359,2359,2359,2354,2354,2354,2354,2354,2359,2364,2364,2359,2364,2364,2364,2370,2370,2364,2370,2370,2370,2370,2370,2370,2370,2364,2364,2359,2354,2354,2348,2343,2343,2343,2343,2343,2343,2337,2337,2343,2343,2343,2348,2343,2343,2343,2348,2343,2337,2337,2337,2337,2337,2337,2332,2332,2332,2332,2332,2332,2332,2337,2337,2337,2337,2337,2337,2332,2332,2332,2327,2327,2321,2327,2327,2321,2321,2321,2327,2327,2327,2327,2321,2321,2321,2321,2321,2321,2316,2316,2316,2316,2316,2316,2316,2316,2316,2321,2321,2316,2316,2316,2316,2316,2316,2316,2311,2311,2316,2316,2316,2316,2311,2311,2311,2311,2306,2306,2306,2301,2295,2295,2290,2285,2275,2270,2260,2260,2250,2250,2250,2250,2250,2250,2245,2245,2245,2245,2240,2235,2230,2225,2225,2221,2216,2206,2206,2201,2192,2192,2183,2173,2164,2159,2150,2146,2141,2137,2137,2132,2128,2124,2119,2119,2110,2106,2093,2093,2085,2080,2072,2063,2055,2051,2047,2047,2051,2055,2059,2063,2059,2055,2047,2043,2039,2039,2035,2031,2031,2027,2023,2019,2019,2015,2007,2003,1995,1991,1991,1983,1979,1968,1964,1964,1960,1960,1957,1957,0,0,0,0,0
2541,2535,2516,2516,2522,2522,2528,2522,2522,2522,2528,2522,2522,2516,2516,2516,2516,2510,2510,2504,2510,2510,2510,2510,2510,2510,2504,2510,2510,2510,2510,2516,2516,2516,2510,2510,2510,2510,2510,2504,2504,2504,2504,2504,2504,2497,2497,2497,2504,2504,2510,2510,2510,2510,2516,2516,2516,2516,2510,2510,2510,2510,2510,2510,2510,2504,2504,2504,2504,2510,2504,2504,2504,2504,2497,2497,2497,2497,2504,2504,2504,2504,2504,2504,2504,2504,2504,2504,2497,2497,2497,2497,2497,2491,2491,2485,2485,2485,2491,2485,2485,2491,2491,2491,2491,2485,2485,2485,2485,2479,2479,2485,2485,2485,2485,2485,2485,2485,2485,2485,2479,2479,2479,2479,2479,2479,2473,2473,2473,2473,2479,2479,2485,2485,2485,2491,2491,2491,2491,2485,2485,2485,2479,2479,2473,2473,2473,2467,2473,2467,2467,2467,2461,2467,2467,2467,2467,2467,2467,2467,2461,2461,2461,2461,2461,2467,2461,2461,2461,2461,2461,2461,2455,2455,2450,2450,2450,2450,2450,2455,2455,2455,2455,2455,2455,2455,2455,2455,2455,2450,2450,2450,2450,2450,2450,2444,2444,2444,2444,2444,2444,2444,2444,2444,2444,2444,2438,2438,2438,2438,2438,2438,2438,2444,2444,2450,2450,2450,2450,2444,2444,2438,2432,2432,2432,2432,2432,2432,2432,2432,2438,2438,2438,2438,2438,2432,2432,2432,2432,2426,2421,2426,2426,2421,2421,2415,2421,2421,2421,2421,2415,2421,2426,2426,2426,2426,2421,2426,2426,2432,2432,2432,2432,2432,2432,2432,2432,2432,2432,2432,2426,2426,2426,2426,2421,2421,2421,2421,2415,2409,2409,2403,2403,2398,2392,2392,2387,2381,2381,2381,2387,2387,2387,2392,2392,2398,2398,2398,2392,2387,2392,2392,2392,2392,2392,2392,2398,2403,2403,2403,2398,2398,2398,2398,2403,2403,2403,2403,2403,2403,2398,2403,2403,2403,2409,2415,2415,2415,2415,2415,2415,2415,2409,2409,2409,2409,2409,2409,2409,2409,2409,2403,2398,2398,2392,2392,2392,2392,2392,2392,2392,2398,2398,2392,2392,2392,2392,2392,2387,2387,2387,2387,2387,2387,2387,2387,2387,2387,2387,2392,2392,2398,2398,2398,2398,2398,2398,2392,2387,2375,2375,2375,2375,2375,2381,2381,2381,2387,2387,2392,2392,2387,2387,2387,2387,2387,2387,2387,2381,2381,2381,2381,2375,2375,2375,2375,2375,2375,2375,2364,2364,2364,2364,2359,2359,2359,2359,2364,2370,2370,2370,2370,2370,2370,2370,2370,2370,2370,2370,2375,2370,2375,2375,2375,2375,2370,2364,2364,2359,2354,2348,2343,2343,2343,2343,2343,2343,2343,2348,2348,2354,2354,2354,2348,2348,2348,2348,2343,2343,2343,2343,2343,2343,2343,2337,2337,2337,2337,2337,2337,2337,2337,2343,2343,2337,2343,2343,2337,2337,2332,2332,2327,2332,2332,2327,2327,2327,2332,2332,2332,2332,2327,2327,2327,2332,2327,2321,2321,2321,2321,2321,2321,2316,2316,2316,2321,2321,2321,2321,2316,2316,2316,2316,2316,2316,2316,2316,2316,2321,2321,2321,2316,2316,2316,2316,2311,2306,2306,2301,2301,2295,2285,2280,2270,2265,2260,2255,2250,2245,2245,2245,2245,2245,2245,2245,2245,2245,2240,2230,2225,2221,2221,2216,2211,2201,2201,2197,2192,2187,2178,2169,2164,2159,2150,2146,2141,2137,2132,2128,2124,2119,2115,2115,2110,2102,2093,2093,2080,2080,2072,2068,2055,2047,2043,2043,2043,2047,2051,2051,2051,2047,2043,2039,2035,2035,2031,2031,2027,2023,2023,2019,2015,2015,2007,1999,1991,1991,1987,1987,1979,1968,1968,1964,0,0,0,0,0,0,0,0,0
2547,2541,2522,2522,2528,2528,2528,2522,2522,2528,2528,2528,2522,2522,2522,2522,2522,2522,2516,2510,2510,2510,2510,2510,2510,2510,2510,2516,2516,2516,2516,2516,2516,2516,2516,2516,2516,2510,2510,2510,2510,2504,2504,2504,2504,2504,2504,2504,2504,2510,2510,2516,2516,2516,2522,2522,2522,2516,2516,2516,2510,2516,2516,2510,2516,2510,2510,2510,2510,2510,2510,2510,2504,2504,2504,2504,2504,2504,2510,2510,2510,2510,2510,2510,2504,2510,2510,2504,2504,2504,2497,2497,2497,2497,2491,2491,2491,2491,2491,2491,2491,2491,2497,2491,2491,2491,2491,2491,2491,2485,2485,2491,2491,2491,2485,2491,2491,2491,2491,2485,2485,2485,2485,2485,2485,2485,2479,2479,2479,2479,2479,2485,2485,2485,2485,2491,2491,2497,2497,2491,2485,2485,2485,2485,2485,2479,2479,2473,2479,2473,2473,2473,2467,2467,2467,2473,2467,2473,2473,2473,2467,2473,2467,2467,2467,2467,2467,2467,2467,2467,2467,2461,2461,2455,2455,2455,2455,2455,2455,2455,2461,2461,2461,2461,2461,2461,2461,2455,2455,2455,2455,2455,2455,2450,2450,2450,2444,2450,2450,2444,2450,2450,2450,2450,2450,2444,2444,2438,2438,2438,2438,2438,2444,2444,2450,2450,2450,2450,2450,2450,2444,2444,2438,2438,2438,2438,2438,2438,2438,2438,2444,2444,2444,2438,2438,2438,2432,2432,2432,2426,2426,2426,2432,2421,2421,2421,2421,2421,2426,2426,2426,2426,2432,2438,2438,2438,2432,2432,2438,2438,2438,2438,2432,2432,2432,2432,2432,2432,2432,2426,2426,2426,2426,2426,2426,2421,2421,2421,2421,2415,2415,2409,2409,2403,2398,2398,2392,2392,2387,2392,2392,2392,2392,2398,2398,2403,2398,2398,2398,2392,2398,2398,2398,2403,2403,2403,2403,2409,2409,2409,2403,2403,2403,2403,2409,2403,2403,2409,2409,2409,2403,2409,2409,2415,2415,2421,2421,2421,2421,2421,2415,2415,2415,2409,2415,2415,2415,2415,2415,2421,2421,2415,2409,2409,2403,2403,2398,2398,2398,2403,2403,2403,2403,2398,2398,2398,2398,2392,2392,2387,2387,2387,2387,2387,2387,2387,2387,2392,2392,2392,2398,2403,2403,2409,2409,2409,2409,2403,2398,2387,2381,2381,2381,2381,2381,2381,2387,2387,2392,2392,2392,2392,2392,2392,2392,2392,2392,2392,2387,2387,2387,2381,2381,2381,2381,2381,2381,2381,2381,2375,2375,2375,2370,2364,2364,2364,2364,2375,2375,2375,2375,2381,2375,2375,2375,2375,2375,2375,2375,2375,2375,2375,2375,2375,2375,2375,2370,2370,2364,2359,2354,2354,2348,2348,2354,2354,2354,2354,2359,2359,2359,2364,2359,2354,2354,2354,2354,2348,2348,2348,2348,2348,2354,2348,2348,2348,2348,2348,2343,2343,2343,2343,2343,2343,2343,2348,2348,2337,2337,2337,2332,2332,2337,2332,2332,2332,2332,2337,2337,2337,2337,2332,2332,2332,2332,2332,2327,2321,2321,2327,2321,2321,2321,2321,2321,2327,2327,2327,2321,2321,2321,2321,2321,2321,2321,2321,2321,2321,2321,2327,2327,2321,2321,2321,2321,2316,2311,2311,2306,2306,2301,2290,2285,2270,2270,2260,2255,2245,2245,2245,2245,2245,2245,2245,2245,2245,2240,2235,2225,2221,2216,2211,2211,2206,2197,2197,2192,2183,2183,2173,2169,2164,2159,2150,2146,2141,2132,2132,2124,2119,2115,2110,2110,2102,2097,2089,2089,2080,2076,2068,2063,2051,2043,2039,2035,2039,2039,2043,2043,2039,2043,2039,2035,2035,2035,2031,2027,2027,2023,2023,2019,2019,2015,2007,1995,1991,1987,1983,1983,1976,1968,1968,1964,0,1957,1953,1949,1942,0,0,0,0
2554,2541,2528,2528,2528,2528,2528,2528,2528,2528,2528,2528,2528,2528,2528,2528,2535,2535,2528,2522,2528,2528,2522,2522,2516,2516,2516,2522,2522,2516,2522,2522,2522,2522,2522,2522,2522,2522,2522,2522,2516,2516,2516,2510,2510,2504,2510,2510,2510,2516,2516,2522,2522,2522,2528,2528,2522,2522,2516,2516,2516,2516,2516,2516,2516,2516,2516,2510,2510,2516,2510,2510,2510,2510,2510,2510,2510,2510,2510,2510,2516,2516,2516,2510,2510,2516,2516,2510,2510,2510,2510,2510,2504,2497,2491,2491,2491,2497,2497,2491,2497,2497,2504,2497,2497,2491,2491,2491,2491,2485,2491,2491,2491,2491,2491,2491,2491,2497,2497,2491,2491,2491,2485,2491,2485,2485,2485,2485,2479,2479,2485,2485,2491,2491,2491,2491,2491,2497,2497,2497,2491,2491,2491,2491,2491,2485,2485,2479,2479,2479,2473,2473,2467,2473,2473,2473,2473,2473,2479,2473,2473,2473,2473,2473,2473,2473,2473,2467,2473,2473,2473,2467,2467,2461,2461,2461,2461,2461,2455,2461,2461,2467,2467,2467,2467,2467,2467,2461,2461,2461,2455,2461,2461,2455,2450,2450,2450,2455,2455,2455,2455,2455,2455,2455,2455,2450,2444,2444,2444,2444,2444,2444,2444,2450,2450,2450,2455,2455,2455,2450,2450,2444,2444,2438,2444,2438,2444,2444,2450,2444,2450,2455,2455,2450,2450,2444,2438,2438,2438,2432,2432,2432,2432,2426,2432,2432,2432,2438,2438,2438,2438,2438,2444,2444,2444,2444,2438,2438,2438,2444,2444,2438,2438,2438,2438,2432,2432,2432,2432,2426,2426,2426,2426,2426,2426,2426,2426,2426,2421,2421,2421,2415,2415,2409,2403,2398,2398,2392,2392,2392,2392,2398,2398,2403,2403,2409,2409,2403,2403,2403,2403,2403,2409,2409,2409,2409,2409,2409,2409,2409,2409,2403,2403,2409,2409,2409,2409,2409,2409,2409,2409,2415,2415,2415,2421,2421,2421,2421,2421,2421,2415,2415,2415,2415,2415,2421,2421,2421,2421,2426,2426,2421,2421,2415,2409,2409,2409,2403,2403,2409,2409,2409,2409,2403,2403,2403,2403,2398,2398,2392,2392,2387,2387,2387,2387,2387,2387,2387,2392,2398,2398,2403,2409,2409,2415,2415,2415,2409,2403,2398,2392,2387,2387,2387,2387,2387,2387,2387,2392,2392,2392,2392,2392,2392,2398,2392,2392,2392,2387,2387,2387,2387,2381,2381,2381,2387,2387,2387,2387,2381,2381,2381,2381,2375,2370,2370,2375,2375,2381,2381,2381,2387,2387,2381,2381,2381,2375,2375,2375,2375,2375,2375,2381,2381,2381,2381,2375,2375,2370,2364,2364,2364,2354,2359,2359,2359,2359,2364,2370,2364,2364,2364,2364,2354,2354,2354,2354,2354,2348,2354,2348,2354,2359,2354,2348,2354,2354,2348,2348,2348,2343,2348,2348,2348,2348,2348,2348,2343,2343,2337,2337,2332,2337,2337,2337,2337,2337,2343,2343,2343,2343,2337,2337,2337,2337,2332,2327,2321,2327,2327,2327,2327,2327,2327,2327,2327,2332,2332,2332,2327,2327,2321,2321,2321,2321,2321,2321,2321,2327,2327,2327,2327,2327,2321,2321,2321,2316,2311,2306,2306,2301,2290,2285,2270,2270,2260,2255,2245,2245,2245,2245,2245,2245,2245,2240,2240,2240,2235,2225,2216,2211,2206,2201,2201,2192,2187,2187,2183,2178,2173,2164,2159,2159,2150,2150,2141,2137,2132,2128,2115,2115,2110,2106,2102,2093,2085,2085,2076,2072,2068,2063,2047,2039,2035,2031,2031,2035,2039,2039,2035,2039,2035,2035,2035,2035,2031,2027,2027,2023,2023,2019,2015,2011,2003,1991,1987,1983,1983,1979,1976,1968,1964,1960,1960,1957,1949,1946,1942,0,0,0,0
2567,2554,2541,2541,2541,2541,2541,2535,2535,2535,2535,2528,2528,2528,2528,2528,2535,2535,2535,2528,2535,2535,2528,2528,2522,2522,2516,2522,2522,2516,2522,2522,2522,2528,2528,2528,2528,2528,2528,2528,2528,2522,2522,2522,2516,2510,2516,2516,2516,2522,2522,2522,2528,2528,2528,2528,2528,2528,2522,2522,2522,2522,2522,2522,2522,2522,2516,2516,2516,2516,2516,2516,2516,2516,2516,2516,2510,2510,2516,2516,2516,2516,2516,2516,2516,2516,2522,2516,2516,2516,2516,2516,2510,2510,2497,2497,2504,2504,2504,2497,2504,2504,2510,2504,2504,2497,2497,2497,2497,2491,2491,2491,2491,2497,2497,2497,2497,2497,2497,2497,2491,2497,2491,2491,2491,2491,2485,2485,2485,2485,2491,2491,2491,2491,2491,2497,2497,2497,2497,2497,2491,2491,2491,2491,2491,2491,2485,2485,2485,2479,2479,2473,2473,2473,2473,2479,2479,2479,2479,2479,2479,2479,2473,2473,2473,2479,2473,2473,2479,2479,2479,2473,2473,2467,2467,2467,2461,2461,2461,2467,2467,2467,2467,2473,2467,2473,2467,2467,2461,2461,2461,2467,2467,2461,2455,2455,2455,2461,2461,2461,2455,2461,2461,2461,2461,2455,2450,2450,2450,2450,2450,2444,2450,2455,2455,2461,2461,2455,2455,2455,2450,2450,2450,2444,2444,2444,2444,2450,2450,2450,2455,2455,2461,2455,2455,2450,2450,2444,2444,2438,2438,2438,2438,2432,2438,2438,2438,2444,2444,2444,2444,2444,2450,2450,2450,2450,2444,2444,2444,2450,2444,2444,2438,2438,2438,2432,2432,2432,2432,2432,2432,2432,2432,2438,2438,2432,2432,2432,2426,2426,2421,2421,2415,2415,2409,2403,2398,2398,2398,2398,2398,2403,2403,2409,2409,2415,2415,2415,2409,2403,2409,2409,2415,2415,2415,2409,2409,2409,2415,2415,2415,2409,2409,2409,2415,2415,2415,2415,2415,2415,2415,2421,2421,2421,2421,2421,2426,2426,2421,2421,2415,2415,2415,2415,2415,2421,2421,2421,2426,2426,2426,2426,2421,2421,2415,2415,2415,2409,2409,2415,2415,2415,2415,2409,2409,2409,2409,2403,2403,2398,2398,2392,2392,2392,2392,2387,2387,2392,2392,2398,2398,2403,2409,2409,2415,2415,2415,2415,2409,2403,2398,2398,2392,2392,2392,2392,2392,2392,2392,2398,2398,2398,2398,2398,2398,2398,2398,2398,2392,2392,2387,2387,2381,2387,2387,2387,2387,2387,2387,2387,2381,2381,2381,2381,2375,2375,2375,2381,2381,2387,2387,2387,2387,2387,2387,2387,2381,2381,2381,2381,2381,2381,2381,2381,2381,2381,2381,2381,2375,2375,2370,2375,2370,2370,2370,2370,2370,2375,2375,2370,2364,2364,2364,2364,2359,2359,2359,2354,2354,2354,2354,2359,2359,2359,2359,2359,2354,2354,2354,2354,2348,2348,2354,2354,2354,2354,2354,2343,2343,2337,2337,2337,2337,2337,2337,2337,2343,2343,2348,2348,2348,2337,2337,2337,2337,2337,2332,2327,2327,2332,2332,2332,2332,2332,2332,2332,2337,2332,2332,2327,2327,2327,2327,2327,2321,2321,2321,2327,2327,2327,2327,2327,2327,2327,2321,2316,2311,2306,2301,2301,2295,2290,2290,2275,2270,2260,2255,2250,2240,2240,2240,2245,2245,2240,2240,2240,2240,2235,2225,2216,2206,2206,2197,2192,2187,2187,2187,2178,2173,2164,2159,2159,2155,2150,2150,2141,2137,2132,2128,2115,2115,2106,2106,2097,2093,2085,2080,2072,2072,2063,2059,2047,2039,2035,2031,2031,2031,2035,2035,2031,2035,2035,2035,2035,2035,2031,2027,2023,2023,2023,2015,2015,2011,2003,1991,1987,1987,1987,1983,1979,1968,1964,1960,1957,1953,1946,1942,1938,0,0,0,0
2573,2573,2554,2554,2554,2554,2554,2547,2547,2541,2541,2535,2535,2535,2535,2541,2541,2541,2541,2541,2541,2541,2541,2535,2528,2528,2522,2528,2528,2522,2522,2522,2528,2528,2528,2528,2528,2528,2528,2535,2528,2528,2528,2528,2522,2516,2522,2522,2522,2522,2528,2528,2528,2528,2528,2528,2528,2528,2528,2522,2522,2528,2528,2528,2528,2528,2522,2522,2522,2522,2522,2516,2516,2516,2522,2522,2522,2522,2522,2522,2522,2522,2522,2522,2522,2522,2522,2522,2516,2516,2522,2522,2516,2516,2510,2504,2510,2510,2504,2504,2510,2510,2510,2510,2510,2504,2504,2504,2504,2497,2497,2504,2504,2504,2504,2504,2497,2504,2504,2497,2497,2497,2497,2497,2491,2491,2491,2491,2485,2485,2491,2491,2497,2497,2497,2497,2497,2497,2497,2497,2497,2497,2497,2491,2491,2491,2491,2491,2491,2485,2485,2479,2479,2485,2479,2485,2479,2479,2485,2485,2479,2479,2479,2473,2479,2479,2479,2479,2479,2485,2485,2485,2479,2473,2473,2473,2467,2467,2467,2467,2473,2473,2473,2473,2473,2473,2473,2473,2467,2467,2467,2467,2467,2467,2461,2461,2467,2467,2467,2461,2461,2467,2461,2467,2461,2461,2455,2455,2455,2455,2461,2455,2461,2467,2467,2467,2467,2461,2455,2455,2450,2450,2450,2450,2450,2450,2450,2450,2455,2455,2461,2467,2467,2467,2461,2461,2455,2455,2455,2444,2444,2444,2444,2444,2444,2444,2444,2450,2450,2444,2450,2450,2455,2455,2455,2450,2450,2450,2450,2450,2444,2444,2444,2438,2438,2432,2432,2438,2438,2432,2438,2438,2438,2438,2438,2438,2438,2432,2432,2426,2426,2426,2421,2421,2415,2409,2409,2403,2403,2403,2409,2409,2409,2415,2415,2421,2421,2421,2415,2415,2415,2415,2421,2421,2415,2415,2415,2415,2415,2415,2415,2409,2409,2409,2415,2415,2415,2415,2415,2415,2415,2421,2421,2421,2421,2421,2426,2426,2426,2421,2421,2415,2415,2421,2421,2421,2426,2426,2426,2432,2432,2432,2426,2426,2421,2421,2415,2415,2415,2415,2421,2421,2421,2415,2415,2415,2415,2415,2409,2409,2403,2403,2403,2403,2398,2392,2392,2392,2398,2398,2398,2403,2403,2409,2409,2409,2415,2415,2409,2403,2403,2398,2398,2398,2392,2392,2392,2392,2392,2398,2398,2398,2398,2403,2403,2403,2403,2403,2398,2398,2392,2392,2387,2387,2387,2387,2392,2392,2387,2387,2381,2387,2387,2381,2381,2381,2381,2387,2387,2387,2387,2392,2387,2387,2387,2387,2387,2387,2387,2387,2387,2387,2387,2387,2392,2392,2387,2387,2381,2381,2381,2381,2381,2381,2375,2370,2375,2375,2375,2370,2370,2370,2370,2370,2364,2364,2364,2359,2364,2364,2364,2364,2364,2364,2364,2364,2364,2364,2364,2364,2364,2359,2359,2359,2354,2354,2354,2348,2348,2343,2343,2343,2343,2343,2343,2348,2348,2348,2354,2348,2354,2343,2343,2343,2343,2343,2337,2337,2337,2337,2337,2337,2337,2332,2332,2332,2337,2337,2332,2327,2327,2327,2327,2327,2321,2321,2321,2327,2327,2327,2327,2327,2327,2327,2321,2316,2311,2306,2306,2301,2295,2290,2290,2275,2270,2260,2255,2250,2240,2240,2240,2245,2245,2245,2240,2240,2235,2230,2225,2211,2201,2197,2187,2187,2183,2183,2178,2173,2169,2164,2159,2159,2155,2150,2150,2141,2137,2128,2124,2115,2110,2106,2102,2097,2089,2080,2076,2072,2068,2059,2059,2043,2035,2031,2031,2031,2031,2031,2031,2031,2031,2035,2031,2031,2031,2027,2023,2023,2019,2019,2015,2015,2011,2007,1991,1987,1987,1983,1983,1976,1968,1964,1960,1957,1953,1942,1938,1931,0,0,0,0
2573,2573,2554,2560,2560,2554,2554,2554,2554,2547,2547,2541,2541,2541,2541,2541,2547,2541,2547,2541,2541,2541,2547,2541,2535,2535,2535,2535,2541,2535,2528,2535,2535,2535,2535,2535,2535,2535,2535,2535,2535,2541,2535,2535,2535,2528,2528,2528,2528,2528,2528,2528,2528,2528,2528,2528,2535,2528,2528,2528,2528,2535,2535,2535,2528,2528,2522,2522,2522,2522,2522,2522,2522,2522,2522,2522,2522,2522,2522,2528,2528,2528,2528,2528,2528,2528,2535,2528,2522,2522,2522,2522,2522,2522,2516,2510,2516,2516,2516,2516,2516,2516,2522,2516,2516,2516,2510,2510,2510,2504,2504,2504,2510,2510,2510,2504,2504,2504,2510,2504,2504,2504,2504,2504,2504,2504,2497,2497,2491,2491,2491,2491,2497,2497,2497,2497,2497,2504,2504,2504,2504,2497,2497,2497,2497,2497,2497,2497,2497,2491,2491,2491,2485,2485,2485,2491,2485,2485,2485,2485,2485,2485,2479,2479,2479,2479,2479,2485,2485,2491,2491,2491,2485,2485,2479,2479,2473,2473,2473,2473,2473,2479,2479,2479,2479,2479,2479,2473,2473,2473,2473,2473,2473,2473,2473,2473,2473,2473,2473,2467,2467,2467,2467,2467,2467,2461,2461,2461,2461,2467,2467,2467,2467,2467,2467,2467,2467,2467,2461,2461,2455,2455,2455,2455,2455,2461,2461,2461,2467,2467,2467,2473,2473,2473,2467,2467,2461,2461,2461,2455,2450,2450,2450,2450,2450,2450,2450,2450,2450,2450,2450,2455,2455,2455,2455,2450,2450,2450,2450,2444,2444,2444,2438,2438,2438,2438,2438,2438,2438,2438,2438,2438,2438,2444,2444,2438,2438,2438,2432,2426,2426,2426,2426,2426,2426,2415,2415,2415,2415,2415,2415,2415,2415,2421,2421,2426,2426,2426,2426,2421,2421,2421,2421,2421,2421,2415,2415,2415,2421,2415,2415,2409,2409,2415,2415,2415,2421,2421,2421,2421,2421,2421,2421,2421,2421,2421,2421,2421,2421,2421,2421,2421,2421,2421,2421,2426,2426,2426,2432,2432,2432,2432,2426,2426,2421,2421,2421,2421,2421,2421,2426,2426,2426,2426,2421,2421,2421,2421,2415,2415,2415,2409,2409,2403,2403,2398,2398,2398,2398,2398,2398,2398,2403,2403,2409,2409,2409,2415,2415,2409,2409,2403,2403,2398,2398,2392,2392,2392,2392,2398,2398,2398,2403,2403,2403,2403,2403,2403,2398,2398,2398,2398,2392,2392,2392,2392,2392,2392,2387,2387,2387,2387,2387,2387,2381,2381,2387,2387,2387,2392,2387,2392,2392,2387,2387,2387,2387,2387,2387,2387,2387,2387,2392,2392,2392,2392,2392,2387,2381,2381,2381,2387,2387,2387,2381,2375,2375,2381,2381,2370,2370,2370,2370,2370,2364,2364,2364,2370,2370,2370,2364,2370,2370,2375,2375,2375,2375,2375,2375,2375,2375,2364,2364,2364,2359,2359,2359,2354,2348,2348,2348,2343,2348,2348,2348,2354,2354,2354,2354,2354,2354,2348,2348,2348,2348,2343,2343,2343,2343,2343,2343,2343,2337,2337,2337,2337,2343,2337,2337,2332,2332,2327,2327,2327,2327,2321,2327,2327,2327,2332,2332,2327,2332,2327,2321,2321,2316,2306,2306,2306,2301,2295,2290,2275,2265,2260,2255,2245,2240,2235,2235,2240,2240,2240,2240,2240,2235,2230,2221,2211,2201,2192,2187,2183,2183,2178,2173,2169,2169,2164,2159,2159,2159,2150,2146,2141,2132,2124,2119,2115,2110,2106,2102,2097,2093,2085,2076,2072,2063,2055,2051,2039,2031,2023,2023,2023,2023,2027,2027,2027,2031,2031,2031,2031,2031,2027,2023,2023,2019,2023,2015,2015,2011,2003,1995,1987,1983,1983,1979,1976,1968,1964,1960,1960,1953,1946,1934,1927,0,0,0,0
2573,2573,2560,2560,2560,2554,2554,2554,2554,2547,2547,2541,2541,2541,2541,2541,2547,2547,2547,2547,2547,2547,2547,2547,2541,2541,2541,2541,2541,2541,2535,2535,2541,2547,2547,2547,2541,2547,2547,2554,2554,2554,2547,2541,2541,2535,2528,2528,2528,2528,2528,2528,2535,2528,2535,2528,2535,2528,2528,2528,2528,2535,2535,2535,2535,2528,2528,2528,2528,2528,2528,2522,2528,2528,2528,2528,2528,2528,2528,2528,2535,2535,2535,2535,2528,2535,2535,2535,2528,2528,2528,2528,2528,2528,2522,2522,2522,2522,2522,2522,2522,2522,2528,2528,2528,2528,2522,2522,2522,2516,2510,2510,2510,2510,2510,2510,2504,2510,2510,2510,2510,2510,2510,2510,2504,2504,2504,2504,2497,2497,2497,2497,2497,2504,2504,2504,2504,2510,2516,2516,2516,2510,2510,2504,2504,2504,2504,2504,2504,2497,2497,2497,2491,2491,2491,2491,2491,2491,2491,2491,2485,2491,2485,2485,2485,2485,2485,2485,2491,2491,2497,2491,2491,2485,2485,2485,2479,2479,2479,2479,2479,2479,2479,2479,2479,2485,2479,2473,2473,2473,2473,2479,2479,2473,2479,2479,2479,2479,2479,2473,2467,2473,2467,2467,2467,2467,2467,2467,2467,2473,2479,2473,2473,2473,2473,2473,2467,2467,2461,2461,2461,2461,2461,2461,2467,2467,2467,2473,2473,2473,2479,2479,2479,2479,2473,2473,2467,2467,2461,2461,2455,2455,2455,2455,2455,2455,2455,2455,2455,2455,2461,2461,2455,2455,2455,2450,2450,2450,2450,2444,2444,2444,2444,2444,2438,2438,2438,2438,2444,2444,2444,2444,2444,2444,2444,2444,2438,2438,2438,2432,2432,2432,2432,2432,2426,2421,2421,2421,2421,2421,2421,2421,2421,2421,2426,2432,2432,2432,2432,2426,2426,2426,2432,2432,2426,2421,2421,2421,2421,2421,2421,2415,2415,2421,2421,2426,2426,2426,2426,2426,2426,2426,2426,2426,2426,2421,2421,2421,2426,2426,2426,2421,2421,2426,2426,2426,2426,2432,2432,2432,2438,2438,2432,2426,2426,2426,2426,2426,2426,2426,2432,2432,2432,2432,2426,2426,2426,2426,2421,2421,2421,2415,2415,2409,2409,2403,2403,2403,2403,2403,2403,2403,2403,2409,2409,2409,2415,2415,2415,2415,2415,2409,2409,2409,2403,2403,2398,2398,2398,2403,2403,2403,2403,2403,2409,2409,2409,2409,2403,2403,2403,2403,2398,2398,2398,2398,2398,2398,2392,2392,2392,2392,2392,2392,2392,2392,2392,2392,2398,2398,2398,2398,2392,2392,2387,2387,2387,2387,2387,2387,2387,2387,2392,2392,2392,2392,2392,2387,2387,2381,2387,2387,2387,2387,2381,2381,2381,2381,2381,2375,2370,2370,2370,2370,2370,2370,2364,2370,2370,2370,2370,2370,2375,2381,2375,2381,2381,2381,2381,2381,2375,2370,2370,2364,2359,2359,2359,2359,2354,2354,2354,2354,2354,2354,2359,2359,2359,2359,2359,2359,2359,2354,2354,2354,2354,2354,2354,2354,2348,2348,2348,2348,2343,2343,2343,2343,2343,2343,2343,2337,2337,2337,2337,2337,2332,2332,2332,2332,2337,2337,2332,2332,2332,2332,2327,2321,2321,2306,2306,2306,2301,2295,2290,2275,2265,2260,2250,2245,2235,2235,2235,2235,2240,2240,2240,2235,2235,2225,2221,2211,2201,2192,2187,2183,2183,2178,2173,2169,2169,2164,2159,2159,2155,2150,2146,2137,2128,2124,2119,2115,2110,2110,2106,2102,2093,2089,2080,2076,2068,2055,2051,2031,2023,2019,2019,2019,2019,2023,2023,2023,2027,2027,2027,2031,2027,2027,2023,2023,2023,2023,2019,2015,2011,2007,1995,1987,1983,1983,1979,1976,1968,1964,1960,1957,1949,1942,1927,1927,0,0,0,0
2573,2573,2567,2567,2567,2560,2560,2560,2554,2547,2547,2541,2547,2547,2547,2541,2547,2547,2554,2547,2547,2547,2547,2547,2541,2541,2541,2547,2554,2554,2547,2547,2554,2554,2554,2560,2554,2560,2554,2560,2560,2560,2560,2554,2547,2541,2535,2541,2535,2528,2528,2528,2535,2535,2535,2535,2535,2535,2535,2535,2535,2541,2535,2535,2535,2535,2528,2535,2535,2535,2528,2528,2535,2535,2535,2535,2535,2535,2535,2535,2535,2541,2535,2535,2535,2535,2541,2535,2528,2528,2535,2535,2535,2535,2528,2528,2528,2535,2528,2528,2528,2528,2528,2528,2528,2528,2528,2522,2522,2522,2516,2516,2516,2516,2516,2510,2510,2510,2510,2510,2510,2510,2516,2510,2510,2510,2510,2510,2504,2504,2497,2504,2510,2510,2510,2510,2510,2516,2516,2522,2516,2516,2516,2516,2516,2516,2516,2510,2510,2510,2510,2504,2497,2497,2497,2497,2491,2491,2491,2491,2491,2491,2491,2485,2491,2491,2491,2491,2497,2497,2497,2497,2491,2491,2485,2485,2485,2479,2479,2479,2479,2479,2479,2485,2479,2485,2479,2479,2479,2479,2479,2485,2479,2479,2485,2485,2485,2491,2485,2479,2479,2479,2473,2473,2473,2473,2473,2473,2479,2479,2485,2479,2479,2479,2473,2473,2473,2473,2467,2467,2461,2467,2467,2467,2473,2473,2473,2479,2479,2479,2479,2485,2479,2479,2473,2473,2473,2467,2467,2461,2461,2455,2455,2455,2455,2455,2455,2455,2455,2455,2461,2461,2461,2461,2461,2455,2455,2455,2455,2455,2450,2455,2450,2450,2450,2450,2450,2444,2444,2444,2450,2450,2450,2450,2450,2444,2450,2444,2444,2438,2438,2444,2444,2444,2438,2432,2432,2432,2432,2432,2432,2432,2432,2438,2438,2444,2444,2444,2444,2444,2438,2438,2444,2438,2438,2432,2426,2426,2426,2426,2426,2421,2426,2426,2426,2432,2432,2432,2426,2426,2426,2426,2426,2426,2426,2426,2426,2426,2426,2426,2426,2426,2426,2432,2432,2432,2432,2432,2438,2438,2438,2438,2432,2432,2432,2432,2432,2426,2426,2426,2432,2438,2432,2432,2432,2432,2432,2432,2426,2426,2421,2421,2421,2415,2415,2409,2409,2409,2409,2409,2403,2409,2409,2409,2415,2415,2415,2415,2421,2421,2421,2421,2421,2415,2415,2409,2403,2403,2403,2403,2403,2409,2409,2409,2409,2409,2409,2409,2403,2403,2403,2403,2403,2403,2403,2403,2403,2398,2398,2398,2398,2398,2398,2398,2398,2398,2398,2398,2398,2398,2398,2398,2398,2392,2392,2392,2392,2392,2392,2392,2392,2392,2392,2392,2392,2392,2392,2392,2387,2387,2392,2392,2392,2387,2387,2381,2381,2381,2381,2375,2370,2370,2375,2375,2375,2375,2375,2375,2375,2375,2375,2375,2381,2381,2381,2381,2381,2381,2381,2381,2375,2370,2370,2364,2364,2359,2359,2359,2354,2354,2354,2354,2359,2359,2364,2364,2364,2364,2364,2364,2364,2359,2359,2359,2364,2364,2364,2364,2364,2364,2359,2359,2354,2348,2348,2348,2348,2348,2348,2343,2343,2343,2343,2337,2337,2332,2332,2337,2337,2337,2337,2337,2337,2337,2327,2327,2321,2311,2306,2306,2301,2295,2295,2280,2270,2260,2250,2245,2235,2235,2230,2235,2235,2240,2240,2235,2230,2225,2221,2211,2206,2197,2192,2187,2183,2178,2173,2169,2164,2164,2159,2155,2155,2150,2141,2137,2128,2124,2119,2110,2110,2106,2102,2097,2093,2089,2080,2076,2072,2059,2051,2031,2023,2019,2019,2015,2015,2019,2019,2019,2019,2023,2023,2027,2027,2027,2023,2023,2023,2023,2019,2015,2007,2003,1995,1987,1983,1979,1976,1976,1968,1964,1957,1953,1946,1938,1927,1927,0,0,0,0
2586,2586,2573,2573,2573,2560,2560,2560,2554,2547,2547,2547,2554,2547,2554,2547,2554,2554,2554,2554,2547,2547,2554,2554,2547,2547,2547,2554,2554,2554,2554,2554,2554,2554,2560,2560,2560,2560,2560,2567,2567,2567,2567,2560,2554,2547,2547,2547,2541,2535,2535,2535,2541,2541,2547,2547,2547,2547,2547,2547,2547,2547,2547,2541,2541,2535,2535,2535,2535,2535,2535,2535,2535,2535,2541,2541,2541,2541,2541,2541,2541,2541,2541,2535,2535,2541,2541,2535,2535,2535,2535,2541,2541,2541,2535,2535,2535,2541,2535,2535,2535,2535,2535,2535,2535,2535,2528,2522,2522,2522,2522,2516,2516,2516,2516,2516,2516,2516,2516,2516,2516,2516,2516,2516,2516,2516,2516,2516,2510,2510,2510,2510,2516,2516,2516,2516,2516,2522,2522,2522,2522,2522,2522,2522,2522,2522,2522,2516,2516,2516,2510,2510,2504,2504,2504,2504,2497,2497,2497,2497,2497,2497,2497,2497,2497,2497,2497,2497,2504,2504,2504,2497,2497,2491,2491,2485,2485,2485,2479,2485,2485,2485,2485,2485,2485,2485,2485,2485,2485,2485,2485,2485,2485,2485,2485,2491,2491,2491,2485,2479,2479,2479,2479,2479,2479,2479,2479,2479,2479,2485,2485,2485,2485,2479,2479,2479,2473,2473,2473,2473,2467,2473,2473,2473,2473,2479,2479,2479,2479,2479,2479,2479,2479,2479,2473,2473,2473,2467,2467,2467,2467,2461,2461,2461,2461,2461,2461,2461,2461,2461,2467,2467,2467,2467,2467,2461,2467,2467,2461,2467,2467,2467,2467,2467,2461,2455,2455,2455,2455,2455,2455,2455,2455,2455,2455,2455,2455,2455,2450,2450,2450,2455,2455,2455,2450,2450,2450,2450,2455,2455,2450,2450,2450,2450,2450,2455,2450,2455,2455,2450,2450,2450,2450,2450,2444,2438,2432,2432,2432,2432,2432,2432,2432,2432,2432,2438,2444,2438,2432,2432,2432,2432,2432,2432,2432,2432,2432,2432,2432,2432,2432,2432,2426,2432,2432,2432,2432,2438,2438,2444,2444,2444,2438,2438,2438,2438,2438,2432,2432,2432,2438,2438,2438,2432,2432,2432,2432,2432,2432,2426,2426,2426,2426,2421,2421,2415,2415,2415,2415,2409,2409,2409,2415,2415,2415,2415,2415,2415,2421,2426,2426,2421,2421,2421,2421,2421,2409,2409,2403,2409,2409,2409,2409,2409,2409,2409,2409,2409,2403,2403,2403,2403,2403,2403,2403,2403,2403,2403,2398,2398,2398,2403,2398,2403,2403,2403,2403,2403,2403,2403,2403,2403,2398,2398,2392,2392,2392,2392,2398,2398,2392,2392,2392,2398,2398,2398,2398,2392,2392,2392,2392,2392,2392,2387,2387,2381,2381,2381,2381,2381,2375,2375,2381,2387,2387,2387,2387,2381,2381,2381,2381,2381,2381,2387,2381,2381,2387,2381,2381,2381,2381,2375,2375,2370,2364,2364,2364,2364,2359,2359,2359,2359,2364,2364,2370,2370,2370,2370,2370,2370,2370,2364,2364,2364,2364,2370,2370,2370,2370,2370,2364,2364,2359,2359,2354,2354,2354,2354,2354,2348,2348,2348,2348,2343,2337,2337,2337,2337,2337,2343,2343,2343,2343,2337,2332,2327,2321,2311,2311,2306,2301,2295,2295,2280,2270,2260,2250,2245,2235,2230,2230,2230,2235,2235,2235,2230,2230,2225,2221,2216,2206,2201,2192,2187,2183,2178,2173,2169,2164,2164,2159,2159,2155,2150,2146,2141,2132,2119,2115,2110,2106,2106,2102,2097,2093,2093,2085,2080,2068,2055,2047,2027,2019,2011,2011,2011,2011,2011,2011,2015,2015,2019,2023,2023,2023,2023,2019,2019,2023,2023,2019,2015,2007,2003,1991,1987,1983,1979,1976,1972,1968,1964,1957,1953,1946,1938,1927,1927,0,0,0,0
2593,2586,2579,2579,2573,2567,2567,2567,2560,2554,2554,2554,2560,2560,2560,2560,2567,2560,2567,2560,2554,2554,2554,2554,2554,2554,2554,2554,2560,2554,2554,2554,2560,2560,2560,2567,2560,2567,2567,2567,2573,2573,2573,2567,2567,2560,2560,2560,2554,2547,2541,2541,2547,2547,2547,2547,2554,2547,2554,2554,2554,2554,2554,2554,2547,2541,2541,2541,2535,2535,2535,2535,2541,2541,2547,2547,2547,2547,2547,2554,2554,2547,2547,2541,2541,2541,2541,2541,2535,2535,2541,2547,2547,2547,2541,2541,2541,2547,2541,2541,2541,2541,2541,2541,2541,2541,2535,2528,2528,2528,2528,2522,2522,2522,2522,2522,2522,2516,2522,2522,2522,2522,2522,2516,2516,2522,2516,2516,2516,2516,2516,2516,2516,2516,2522,2522,2522,2522,2522,2522,2522,2522,2522,2522,2522,2522,2522,2522,2516,2516,2516,2510,2510,2510,2510,2504,2504,2504,2504,2504,2497,2504,2497,2497,2504,2504,2504,2504,2504,2504,2504,2504,2497,2491,2491,2491,2491,2491,2491,2491,2491,2491,2491,2491,2491,2491,2491,2485,2485,2485,2491,2491,2491,2491,2491,2491,2491,2491,2491,2485,2485,2485,2479,2479,2485,2485,2485,2485,2485,2491,2491,2491,2485,2479,2479,2479,2479,2479,2479,2473,2473,2473,2473,2473,2473,2479,2479,2479,2479,2479,2479,2479,2479,2479,2473,2473,2473,2467,2467,2467,2467,2461,2461,2461,2461,2461,2467,2467,2467,2467,2473,2473,2473,2473,2473,2473,2473,2473,2473,2479,2479,2479,2479,2479,2473,2467,2467,2461,2461,2461,2461,2467,2467,2467,2467,2467,2461,2461,2455,2455,2455,2455,2455,2461,2455,2455,2455,2461,2467,2467,2461,2461,2467,2467,2467,2467,2461,2461,2461,2461,2461,2461,2455,2455,2450,2450,2444,2438,2438,2438,2438,2438,2438,2438,2438,2450,2455,2450,2444,2444,2444,2444,2438,2438,2438,2438,2438,2438,2438,2438,2438,2432,2432,2438,2438,2438,2438,2438,2444,2444,2444,2444,2438,2438,2438,2444,2438,2438,2438,2432,2438,2438,2438,2432,2432,2438,2438,2438,2438,2432,2432,2432,2432,2432,2426,2421,2421,2421,2421,2415,2409,2409,2415,2415,2415,2415,2415,2415,2421,2421,2421,2421,2421,2421,2426,2421,2415,2415,2409,2415,2415,2415,2409,2409,2409,2409,2409,2409,2403,2403,2403,2409,2403,2409,2409,2409,2409,2403,2403,2403,2403,2403,2403,2403,2409,2409,2409,2409,2403,2403,2403,2403,2403,2398,2398,2398,2398,2398,2398,2398,2398,2398,2398,2398,2398,2398,2398,2398,2392,2392,2392,2392,2392,2392,2387,2381,2387,2387,2387,2381,2381,2381,2387,2392,2398,2403,2403,2398,2398,2398,2392,2392,2392,2392,2387,2387,2387,2387,2387,2381,2381,2375,2375,2375,2370,2370,2370,2370,2364,2364,2370,2370,2375,2375,2381,2381,2381,2381,2375,2375,2375,2375,2370,2370,2370,2375,2375,2375,2375,2375,2375,2375,2370,2364,2364,2364,2364,2364,2359,2354,2354,2354,2354,2348,2343,2343,2343,2343,2343,2343,2343,2343,2343,2337,2332,2327,2321,2311,2311,2301,2301,2295,2290,2275,2265,2255,2245,2240,2230,2225,2225,2230,2230,2235,2235,2230,2230,2225,2225,2216,2211,2201,2197,2187,2183,2178,2173,2169,2164,2164,2159,2155,2155,2150,2146,2137,2124,2115,2115,2106,2106,2106,2102,2097,2093,2093,2085,2076,2063,2051,2043,2027,2015,2011,2011,2007,2007,2007,2011,2011,2015,2019,2023,2027,2027,2023,2019,2019,2019,2019,2015,2011,2003,1995,1987,1983,1979,1979,1976,1972,1968,1964,1957,1953,1946,1938,1927,1927,0,0,0,0
2599,2593,2586,2586,2579,2573,2573,2573,2567,2560,2560,2560,2560,2567,2567,2567,2567,2567,2567,2567,2560,2560,2560,2560,2554,2554,2554,2560,2560,2567,2560,2560,2567,2567,2567,2567,2567,2573,2573,2573,2579,2586,2586,2579,2573,2567,2567,2567,2560,2547,2547,2541,2547,2554,2554,2554,2560,2560,2560,2560,2560,2567,2560,2560,2554,2547,2547,2547,2541,2541,2541,2541,2541,2547,2547,2554,2547,2554,2554,2560,2560,2560,2554,2547,2554,2547,2547,2547,2541,2541,2547,2554,2554,2560,2554,2554,2547,2554,2554,2554,2547,2547,2541,2547,2547,2541,2541,2535,2535,2535,2535,2535,2528,2528,2528,2528,2522,2522,2522,2522,2522,2522,2522,2522,2522,2522,2522,2522,2522,2522,2522,2522,2522,2522,2528,2528,2528,2528,2528,2528,2528,2528,2528,2528,2528,2528,2522,2522,2522,2516,2516,2510,2510,2510,2510,2510,2504,2504,2504,2504,2504,2504,2504,2504,2510,2510,2510,2510,2510,2510,2510,2504,2504,2497,2491,2491,2491,2497,2497,2497,2497,2497,2497,2504,2504,2497,2497,2497,2491,2491,2497,2497,2491,2491,2491,2491,2491,2497,2491,2491,2491,2491,2491,2491,2491,2491,2491,2491,2491,2491,2497,2497,2491,2485,2485,2485,2485,2485,2479,2479,2479,2479,2479,2479,2479,2479,2479,2479,2479,2479,2479,2479,2479,2479,2479,2473,2473,2473,2467,2467,2467,2467,2467,2467,2467,2467,2473,2473,2473,2479,2479,2479,2479,2479,2479,2479,2485,2485,2485,2491,2491,2491,2491,2491,2479,2479,2479,2473,2473,2473,2473,2473,2473,2479,2479,2473,2473,2473,2473,2467,2467,2467,2467,2467,2467,2461,2467,2467,2473,2473,2467,2467,2473,2473,2473,2473,2467,2467,2473,2473,2473,2473,2461,2461,2461,2455,2450,2444,2444,2444,2438,2438,2444,2444,2444,2455,2461,2455,2450,2455,2455,2450,2450,2444,2444,2444,2444,2444,2444,2438,2444,2444,2438,2444,2444,2444,2444,2444,2444,2450,2450,2450,2444,2444,2444,2444,2444,2438,2438,2438,2438,2438,2438,2438,2438,2438,2438,2438,2438,2438,2438,2438,2438,2432,2432,2426,2421,2421,2421,2415,2415,2415,2415,2415,2421,2415,2415,2415,2415,2421,2421,2415,2421,2421,2421,2426,2421,2421,2421,2421,2421,2421,2415,2415,2415,2409,2409,2409,2403,2403,2409,2409,2409,2409,2409,2409,2409,2409,2403,2403,2403,2403,2403,2409,2409,2415,2409,2409,2409,2409,2409,2409,2403,2403,2403,2403,2403,2403,2403,2403,2403,2403,2398,2398,2398,2398,2398,2398,2398,2392,2392,2398,2398,2392,2392,2387,2387,2387,2387,2387,2387,2392,2392,2398,2398,2409,2403,2403,2403,2403,2398,2398,2398,2398,2392,2392,2392,2392,2387,2387,2381,2375,2375,2375,2370,2370,2375,2375,2370,2375,2381,2381,2387,2387,2387,2387,2387,2387,2381,2381,2381,2381,2375,2375,2375,2375,2381,2381,2381,2381,2381,2375,2375,2370,2370,2364,2364,2364,2364,2354,2359,2359,2354,2348,2348,2348,2348,2343,2343,2343,2343,2343,2343,2337,2332,2327,2321,2311,2311,2301,2295,2290,2280,2270,2260,2250,2240,2235,2225,2225,2221,2225,2230,2230,2230,2230,2230,2230,2225,2221,2211,2206,2197,2187,2183,2178,2169,2164,2164,2159,2159,2155,2150,2146,2141,2132,2124,2115,2110,2106,2106,2102,2097,2097,2093,2089,2080,2076,2059,2047,2039,2023,2011,2007,2007,2007,2003,1999,2003,2007,2011,2019,2023,2027,2023,2023,2023,2019,2019,2015,2011,2007,1999,1995,1987,1983,1979,1979,1979,1976,1972,1968,1957,1953,1946,1938,1927,1927,0,0,0,0
2599,2599,2593,2586,2586,2579,2579,2573,2567,2560,2560,2560,2560,2567,2573,2573,2573,2573,2573,2573,2573,2567,2567,2567,2567,2567,2567,2573,2573,2579,2579,2579,2579,2573,2579,2579,2579,2579,2579,2586,2586,2593,2593,2586,2579,2573,2573,2567,2567,2560,2554,2554,2554,2554,2560,2560,2560,2560,2567,2567,2567,2567,2567,2567,2560,2560,2554,2554,2554,2547,2547,2541,2547,2547,2554,2554,2554,2560,2560,2567,2567,2567,2560,2560,2560,2560,2554,2554,2547,2547,2547,2554,2554,2560,2560,2560,2554,2560,2560,2560,2547,2547,2547,2547,2554,2547,2547,2541,2541,2547,2547,2541,2535,2535,2535,2535,2528,2522,2528,2528,2528,2528,2528,2522,2528,2528,2528,2528,2528,2528,2528,2528,2535,2535,2535,2535,2535,2535,2535,2535,2541,2541,2541,2541,2535,2535,2535,2528,2528,2522,2516,2510,2510,2510,2510,2510,2504,2510,2510,2504,2504,2504,2510,2510,2510,2516,2510,2516,2516,2516,2510,2510,2510,2504,2497,2497,2497,2504,2504,2504,2504,2504,2504,2510,2510,2504,2497,2497,2497,2497,2497,2497,2497,2497,2497,2497,2497,2497,2491,2491,2491,2491,2491,2497,2497,2497,2497,2497,2497,2497,2504,2497,2497,2491,2485,2485,2485,2485,2485,2485,2485,2485,2485,2485,2485,2485,2485,2479,2485,2485,2479,2479,2479,2479,2479,2473,2473,2473,2473,2473,2467,2467,2467,2467,2473,2473,2479,2479,2479,2485,2485,2485,2491,2491,2485,2491,2491,2491,2491,2497,2497,2497,2497,2497,2485,2485,2485,2485,2485,2485,2485,2485,2485,2491,2485,2485,2479,2479,2479,2473,2467,2467,2467,2473,2473,2467,2473,2473,2479,2479,2473,2473,2473,2473,2479,2473,2473,2479,2485,2485,2485,2479,2473,2473,2467,2467,2461,2450,2450,2450,2450,2450,2455,2455,2455,2461,2467,2467,2461,2467,2467,2461,2461,2455,2450,2450,2450,2450,2450,2444,2450,2450,2450,2450,2450,2444,2444,2444,2444,2450,2450,2450,2444,2444,2444,2444,2444,2444,2444,2444,2444,2444,2438,2438,2444,2438,2444,2438,2438,2438,2444,2444,2444,2438,2438,2432,2432,2432,2432,2426,2421,2421,2421,2421,2421,2421,2415,2415,2421,2421,2421,2421,2421,2421,2426,2432,2432,2432,2426,2432,2432,2432,2426,2421,2421,2415,2415,2409,2409,2409,2409,2415,2415,2415,2415,2415,2415,2415,2409,2409,2409,2409,2409,2415,2421,2421,2421,2415,2415,2409,2409,2409,2403,2403,2403,2403,2409,2409,2409,2409,2409,2403,2403,2403,2403,2398,2398,2398,2398,2392,2398,2398,2398,2398,2398,2392,2392,2392,2392,2392,2392,2398,2398,2403,2403,2409,2409,2403,2403,2403,2403,2398,2398,2398,2392,2392,2392,2392,2387,2387,2387,2375,2375,2375,2375,2375,2375,2381,2381,2381,2387,2387,2392,2392,2392,2392,2392,2392,2387,2387,2381,2381,2381,2381,2381,2381,2387,2387,2387,2387,2387,2387,2381,2381,2375,2370,2370,2370,2364,2359,2359,2354,2354,2348,2348,2348,2348,2348,2348,2348,2343,2343,2343,2337,2332,2327,2321,2311,2311,2301,2295,2285,2275,2265,2255,2245,2235,2235,2225,2225,2221,2225,2225,2230,2230,2230,2230,2225,2221,2216,2206,2197,2192,2183,2183,2173,2169,2159,2159,2159,2155,2150,2146,2141,2137,2128,2115,2110,2110,2106,2102,2102,2097,2097,2093,2089,2080,2068,2055,2043,2035,2023,2011,2007,2003,1999,1995,1991,1995,1995,2003,2011,2019,2023,2023,2019,2019,2019,2019,2015,2011,2003,1999,1995,1987,1983,1979,1979,1979,1976,1972,1964,1957,1953,1946,1942,1931,1927,0,0,0,0
2599,2599,2593,2586,2586,2579,2579,2573,2567,2560,2560,2560,2567,2573,2573,2573,2579,2579,2579,2579,2579,2573,2573,2573,2573,2573,2573,2579,2579,2586,2586,2586,2586,2586,2586,2586,2586,2586,2586,2586,2593,2593,2593,2586,2579,2579,2573,2573,2567,2567,2560,2560,2560,2560,2567,2567,2567,2567,2567,2573,2573,2573,2567,2567,2567,2560,2560,2560,2560,2554,2554,2554,2554,2560,2567,2567,2560,2567,2567,2567,2573,2567,2567,2567,2567,2560,2560,2560,2554,2554,2554,2560,2560,2560,2560,2560,2560,2567,2567,2567,2554,2554,2554,2560,2560,2554,2547,2547,2547,2554,2547,2547,2541,2541,2541,2541,2541,2535,2535,2535,2535,2535,2535,2528,2528,2535,2535,2535,2535,2535,2535,2535,2535,2535,2535,2535,2541,2541,2541,2541,2541,2547,2547,2554,2547,2541,2535,2535,2535,2522,2522,2516,2516,2516,2510,2510,2510,2510,2510,2510,2510,2510,2510,2516,2516,2516,2516,2516,2516,2516,2516,2516,2510,2510,2504,2504,2510,2510,2510,2510,2516,2510,2510,2516,2516,2510,2504,2504,2504,2504,2504,2504,2504,2497,2504,2497,2497,2497,2497,2497,2497,2497,2497,2504,2504,2504,2504,2504,2504,2504,2504,2497,2497,2491,2485,2491,2491,2491,2491,2491,2491,2491,2491,2491,2491,2491,2491,2485,2485,2485,2479,2485,2479,2479,2479,2479,2473,2473,2473,2473,2473,2473,2473,2479,2479,2479,2485,2485,2485,2491,2491,2491,2491,2491,2491,2491,2497,2497,2497,2504,2497,2497,2497,2497,2491,2491,2491,2491,2491,2491,2491,2491,2491,2491,2491,2485,2485,2479,2479,2473,2467,2473,2467,2473,2473,2467,2473,2473,2479,2479,2473,2473,2479,2479,2479,2485,2479,2485,2491,2491,2491,2491,2485,2479,2479,2473,2473,2461,2455,2461,2461,2467,2467,2467,2467,2473,2479,2473,2473,2473,2473,2467,2473,2467,2461,2455,2455,2455,2455,2455,2450,2450,2450,2450,2450,2450,2450,2450,2450,2450,2450,2455,2450,2450,2450,2450,2450,2450,2444,2444,2444,2444,2444,2444,2444,2444,2444,2438,2438,2438,2438,2444,2444,2444,2438,2438,2438,2438,2438,2432,2426,2426,2426,2426,2426,2426,2421,2421,2421,2421,2421,2421,2421,2421,2432,2432,2432,2432,2432,2432,2438,2432,2432,2426,2421,2421,2415,2415,2415,2415,2415,2421,2421,2421,2421,2421,2421,2421,2421,2415,2415,2415,2415,2421,2421,2426,2426,2421,2421,2415,2415,2415,2409,2409,2409,2409,2409,2415,2409,2409,2409,2409,2403,2403,2403,2398,2398,2398,2398,2398,2398,2398,2398,2403,2398,2398,2398,2398,2398,2398,2398,2403,2403,2409,2409,2409,2409,2409,2409,2409,2403,2403,2403,2403,2398,2398,2398,2398,2392,2392,2387,2381,2381,2381,2381,2381,2381,2381,2381,2387,2392,2398,2398,2398,2398,2398,2398,2398,2392,2387,2387,2387,2387,2387,2387,2387,2392,2392,2392,2387,2392,2387,2387,2387,2381,2381,2375,2370,2364,2359,2359,2354,2354,2348,2348,2348,2348,2348,2348,2348,2343,2343,2343,2337,2332,2327,2321,2311,2306,2295,2290,2280,2270,2265,2255,2245,2235,2230,2225,2225,2225,2225,2225,2230,2230,2230,2230,2225,2221,2216,2206,2197,2192,2187,2183,2173,2169,2159,2159,2155,2150,2146,2137,2137,2128,2124,2110,2110,2110,2106,2102,2102,2097,2097,2093,2089,2080,2063,2051,2039,2031,2019,2011,2003,1999,1995,1987,1983,1987,1987,1995,2003,2011,2019,2019,2019,2019,2019,2019,2015,2007,1999,1991,1991,1987,1983,1979,1976,1976,1972,1968,1960,1953,1949,1946,1942,1927,1924,0,0,0,0
2599,2599,2593,2593,2586,2579,2579,2579,2573,2573,2573,2573,2573,2579,2579,2579,2579,2579,2579,2579,2579,2579,2573,2579,2579,2579,2579,2579,2586,2586,2586,2586,2586,2586,2586,2586,2586,2593,2586,2586,2593,2593,2593,2586,2586,2579,2579,2573,2573,2567,2560,2560,2567,2567,2573,2573,2573,2573,2573,2573,2573,2573,2567,2567,2567,2567,2567,2567,2567,2567,2567,2567,2573,2579,2579,2579,2579,2579,2573,2573,2573,2573,2567,2567,2567,2567,2567,2567,2560,2560,2560,2560,2560,2567,2567,2567,2567,2573,2567,2567,2560,2560,2560,2560,2560,2560,2554,2554,2554,2554,2554,2554,2541,2547,2547,2547,2547,2541,2541,2541,2541,2547,2547,2541,2541,2541,2535,2535,2541,2535,2535,2541,2541,2541,2541,2547,2547,2547,2547,2547,2547,2547,2554,2554,2547,2541,2541,2541,2541,2535,2528,2522,2522,2522,2516,2516,2516,2516,2516,2510,2510,2516,2516,2522,2522,2522,2522,2522,2522,2516,2516,2516,2510,2510,2504,2510,2510,2516,2516,2516,2516,2516,2516,2516,2516,2510,2510,2504,2504,2504,2504,2504,2504,2504,2504,2504,2497,2497,2497,2497,2497,2504,2504,2510,2510,2510,2510,2510,2510,2504,2504,2497,2497,2491,2491,2491,2491,2497,2497,2497,2497,2497,2497,2497,2491,2491,2491,2485,2485,2485,2485,2485,2479,2485,2479,2479,2479,2479,2479,2479,2479,2479,2479,2485,2485,2485,2491,2491,2491,2491,2497,2491,2497,2497,2491,2491,2497,2497,2497,2510,2504,2504,2504,2510,2497,2497,2497,2497,2497,2491,2491,2491,2491,2491,2491,2485,2479,2479,2479,2479,2473,2473,2473,2473,2479,2473,2479,2479,2485,2485,2485,2485,2485,2485,2485,2491,2491,2491,2497,2497,2497,2497,2497,2491,2485,2491,2485,2473,2473,2473,2473,2479,2479,2479,2473,2479,2485,2485,2479,2479,2473,2473,2479,2473,2473,2467,2467,2467,2461,2461,2461,2455,2455,2455,2455,2455,2455,2455,2455,2455,2455,2461,2461,2461,2455,2455,2455,2455,2450,2450,2450,2450,2450,2450,2450,2444,2444,2444,2444,2444,2444,2444,2444,2444,2444,2438,2438,2438,2438,2438,2432,2432,2432,2432,2432,2426,2426,2426,2426,2426,2426,2426,2426,2426,2432,2432,2438,2438,2432,2438,2438,2438,2438,2432,2432,2426,2426,2421,2421,2415,2421,2421,2421,2421,2426,2426,2421,2421,2421,2421,2421,2421,2421,2426,2426,2432,2426,2426,2421,2421,2421,2415,2415,2415,2415,2415,2415,2415,2415,2415,2409,2409,2403,2403,2403,2403,2403,2403,2398,2398,2398,2398,2403,2403,2403,2403,2403,2403,2403,2403,2403,2409,2409,2409,2415,2415,2415,2409,2409,2409,2409,2403,2403,2403,2403,2403,2398,2398,2398,2392,2392,2387,2387,2387,2381,2381,2387,2387,2387,2392,2398,2398,2403,2398,2403,2403,2403,2398,2398,2392,2392,2392,2392,2387,2392,2392,2392,2398,2392,2392,2392,2392,2392,2387,2381,2381,2381,2375,2370,2359,2354,2354,2354,2348,2348,2348,2348,2348,2348,2348,2343,2343,2343,2337,2327,2321,2316,2306,2306,2290,2285,2275,2270,2260,2255,2240,2235,2230,2225,2221,2221,2221,2225,2230,2230,2230,2230,2225,2221,2216,2211,2197,2192,2187,2178,2169,2164,2155,2155,2150,2141,2137,2132,2128,2124,2119,2110,2110,2110,2106,2102,2102,2097,2093,2093,2089,2076,2063,2047,2035,2027,2015,2007,2003,1999,1991,1983,1983,1983,1983,1991,2003,2007,2015,2015,2019,2019,2019,2019,2011,2007,1995,1991,1987,1983,1983,1976,1972,1972,1968,1964,1957,1949,1946,1942,1942,1927,1927,0,0,0,0
2599,2599,2599,2599,2593,2593,2593,2593,2593,2593,2586,2586,2586,2586,2586,2586,2586,2579,2579,2579,2579,2579,2579,2579,2579,2579,2579,2586,2586,2586,2586,2593,2586,2586,2593,2593,2593,2593,2586,2586,2593,2593,2593,2586,2586,2586,2579,2579,2579,2573,2567,2567,2573,2573,2573,2573,2573,2573,2579,2579,2579,2573,2573,2573,2567,2567,2567,2567,2573,2567,2573,2573,2579,2586,2586,2586,2586,2579,2579,2579,2579,2573,2573,2573,2573,2573,2573,2573,2573,2567,2567,2573,2573,2573,2573,2567,2567,2573,2573,2573,2567,2567,2567,2567,2567,2560,2554,2554,2560,2560,2560,2560,2554,2554,2554,2560,2560,2560,2554,2547,2547,2554,2554,2547,2547,2547,2541,2541,2541,2541,2541,2541,2547,2541,2547,2547,2554,2554,2554,2547,2547,2547,2554,2554,2547,2547,2547,2547,2547,2541,2535,2528,2528,2528,2522,2522,2516,2516,2516,2516,2522,2522,2522,2528,2528,2528,2528,2528,2528,2522,2522,2516,2516,2510,2510,2510,2510,2516,2516,2516,2522,2516,2522,2522,2522,2516,2510,2510,2504,2504,2504,2504,2504,2504,2504,2504,2504,2504,2504,2504,2504,2510,2510,2516,2516,2516,2516,2516,2510,2504,2504,2504,2497,2491,2497,2497,2497,2504,2504,2504,2497,2504,2497,2497,2491,2491,2485,2485,2485,2485,2485,2485,2485,2491,2491,2491,2485,2491,2491,2491,2491,2491,2491,2491,2491,2491,2491,2491,2497,2497,2497,2497,2497,2504,2497,2497,2504,2504,2504,2510,2510,2510,2510,2510,2504,2504,2504,2497,2497,2497,2491,2491,2491,2491,2491,2491,2485,2485,2485,2485,2485,2479,2479,2479,2485,2485,2485,2491,2491,2497,2491,2497,2497,2497,2497,2504,2497,2497,2504,2510,2510,2510,2504,2497,2491,2491,2491,2485,2479,2479,2479,2485,2491,2485,2485,2485,2491,2491,2485,2485,2479,2479,2485,2485,2479,2473,2473,2473,2467,2467,2461,2461,2455,2455,2455,2455,2455,2455,2455,2455,2461,2467,2467,2467,2467,2461,2461,2461,2461,2455,2455,2455,2455,2455,2461,2455,2455,2450,2450,2450,2450,2450,2450,2450,2450,2450,2450,2450,2444,2438,2438,2438,2438,2438,2438,2432,2432,2426,2432,2432,2432,2426,2426,2432,2432,2438,2438,2438,2438,2438,2444,2444,2438,2438,2438,2432,2432,2426,2426,2426,2426,2426,2426,2421,2426,2426,2426,2421,2426,2426,2426,2426,2426,2426,2432,2432,2432,2426,2426,2421,2421,2421,2421,2415,2415,2415,2415,2421,2415,2415,2415,2409,2403,2403,2403,2403,2403,2403,2403,2403,2403,2403,2403,2409,2409,2409,2409,2409,2409,2409,2409,2409,2415,2415,2415,2415,2415,2415,2415,2415,2409,2409,2409,2409,2409,2403,2403,2398,2398,2398,2392,2387,2387,2387,2387,2387,2387,2387,2387,2392,2398,2403,2403,2403,2403,2403,2403,2398,2398,2392,2392,2392,2392,2392,2392,2392,2398,2398,2398,2392,2398,2392,2392,2392,2387,2387,2381,2375,2370,2359,2354,2348,2348,2348,2348,2348,2348,2348,2348,2348,2343,2343,2343,2332,2327,2321,2316,2306,2301,2290,2285,2275,2270,2260,2255,2245,2235,2230,2225,2221,2216,2221,2221,2230,2230,2230,2225,2225,2221,2216,2211,2197,2192,2187,2178,2164,2159,2150,2150,2146,2141,2137,2128,2124,2124,2119,2110,2106,2102,2102,2097,2093,2089,2089,2085,2080,2072,2055,2043,2031,2023,2011,2003,1995,1995,1991,1983,1979,1979,1983,1987,1999,2003,2011,2011,2015,2015,2015,2015,2011,2007,1995,1995,1991,1983,1983,1976,1972,1972,1968,1964,1957,1949,1946,1942,1942,1931,1927,0,0,0,0
2599,2599,2599,2599,2599,2593,2593,2599,2599,2599,2599,2593,2586,2593,2599,2593,2593,2593,2593,2593,2593,2593,2586,2586,2586,2586,2586,2586,2593,2593,2593,2593,2593,2593,2593,2593,2593,2593,2593,2593,2593,2593,2593,2593,2586,2586,2586,2586,2586,2579,2579,2573,2579,2579,2579,2579,2579,2579,2586,2586,2579,2579,2579,2579,2573,2573,2573,2573,2573,2573,2579,2579,2586,2593,2599,2593,2593,2593,2593,2586,2586,2579,2573,2573,2579,2579,2579,2579,2579,2573,2573,2579,2573,2579,2573,2573,2573,2573,2573,2573,2567,2573,2567,2573,2573,2567,2560,2567,2567,2567,2567,2567,2560,2567,2567,2567,2567,2567,2560,2560,2554,2560,2560,2554,2554,2547,2541,2541,2547,2547,2547,2547,2547,2554,2554,2554,2554,2554,2554,2547,2547,2547,2554,2560,2554,2547,2547,2547,2547,2541,2535,2528,2528,2528,2522,2522,2522,2522,2522,2522,2528,2528,2535,2535,2535,2535,2535,2535,2535,2528,2528,2522,2522,2516,2516,2516,2516,2522,2522,2522,2522,2522,2522,2528,2528,2522,2516,2516,2510,2510,2510,2510,2504,2504,2504,2504,2504,2504,2510,2510,2510,2510,2516,2516,2522,2522,2516,2516,2516,2510,2510,2504,2504,2504,2504,2510,2510,2510,2516,2516,2510,2510,2504,2504,2491,2491,2485,2485,2485,2485,2485,2485,2491,2497,2497,2497,2497,2497,2504,2504,2504,2504,2504,2504,2504,2504,2504,2504,2504,2504,2504,2504,2504,2510,2504,2504,2510,2504,2504,2510,2510,2510,2510,2516,2504,2504,2504,2497,2497,2497,2497,2491,2491,2497,2497,2497,2491,2491,2491,2491,2485,2485,2485,2485,2491,2491,2491,2491,2497,2497,2497,2497,2497,2504,2504,2510,2510,2510,2510,2516,2516,2510,2510,2504,2497,2497,2497,2491,2485,2485,2485,2491,2497,2497,2491,2497,2497,2497,2491,2491,2485,2485,2485,2485,2485,2485,2485,2479,2473,2473,2473,2467,2461,2461,2461,2461,2461,2461,2461,2461,2467,2473,2473,2473,2467,2467,2467,2467,2467,2461,2461,2461,2461,2461,2467,2467,2461,2455,2455,2455,2455,2455,2455,2450,2455,2455,2455,2455,2450,2444,2444,2444,2444,2444,2438,2438,2438,2432,2432,2432,2432,2432,2432,2432,2438,2438,2438,2438,2438,2444,2450,2450,2450,2444,2444,2444,2438,2438,2438,2432,2432,2432,2426,2426,2426,2426,2426,2426,2432,2426,2426,2432,2432,2432,2432,2438,2432,2432,2426,2426,2426,2426,2421,2421,2421,2421,2421,2421,2421,2421,2421,2421,2409,2409,2409,2409,2409,2409,2403,2403,2403,2409,2409,2415,2409,2415,2415,2415,2415,2415,2415,2415,2415,2421,2415,2415,2415,2415,2421,2415,2415,2409,2409,2415,2415,2409,2409,2403,2403,2403,2403,2398,2398,2392,2392,2392,2392,2392,2398,2403,2409,2409,2403,2403,2403,2403,2403,2398,2398,2392,2392,2392,2392,2392,2392,2392,2398,2398,2398,2398,2398,2392,2392,2392,2387,2387,2381,2375,2375,2359,2354,2354,2354,2348,2348,2354,2354,2348,2348,2343,2343,2343,2337,2332,2327,2316,2311,2306,2301,2290,2280,2275,2270,2260,2255,2245,2235,2230,2225,2225,2221,2221,2221,2230,2230,2230,2225,2221,2216,2216,2206,2192,2187,2183,2178,2164,2159,2150,2150,2146,2141,2137,2132,2124,2124,2119,2110,2106,2102,2097,2093,2089,2089,2089,2085,2080,2068,2047,2039,2027,2019,2007,1999,1991,1991,1987,1979,1976,1976,1976,1979,1983,1987,1999,2003,2007,2011,2015,2015,2007,2007,1999,1999,1995,1987,1983,1976,1976,1968,1964,1960,1957,1949,1949,1946,1942,1931,1927,0,0,0,0
2599,2599,2599,2599,2599,2599,2599,2606,2606,2606,2606,2599,2593,2593,2599,2599,2599,2599,2599,2599,2599,2599,2599,2599,2593,2593,2586,2593,2593,2593,2593,2593,2593,2599,2599,2599,2599,2599,2599,2599,2599,2599,2599,2593,2593,2593,2593,2586,2586,2586,2579,2579,2586,2586,2586,2586,2586,2593,2593,2586,2586,2586,2586,2579,2579,2579,2579,2579,2579,2579,2586,2586,2593,2606,2606,2599,2599,2593,2593,2586,2586,2579,2579,2579,2579,2579,2586,2586,2586,2579,2579,2579,2579,2579,2579,2573,2573,2579,2579,2579,2573,2573,2573,2579,2573,2573,2567,2573,2573,2573,2573,2573,2567,2567,2573,2573,2567,2567,2567,2567,2560,2567,2560,2560,2554,2554,2547,2547,2547,2554,2554,2554,2554,2554,2554,2554,2554,2554,2554,2554,2554,2547,2560,2560,2554,2554,2554,2547,2547,2541,2535,2528,2528,2528,2528,2522,2522,2522,2528,2528,2535,2535,2535,2535,2535,2541,2535,2535,2535,2535,2535,2528,2528,2528,2522,2522,2522,2522,2522,2522,2528,2528,2528,2535,2535,2528,2522,2516,2516,2516,2510,2510,2510,2510,2510,2510,2510,2510,2516,2516,2516,2516,2522,2528,2528,2528,2522,2516,2516,2510,2510,2510,2504,2510,2510,2516,2516,2516,2522,2522,2516,2516,2510,2504,2491,2491,2491,2485,2491,2497,2491,2491,2497,2510,2504,2504,2504,2504,2510,2510,2510,2504,2510,2510,2510,2510,2510,2510,2510,2510,2510,2504,2510,2510,2504,2504,2510,2504,2510,2510,2510,2510,2516,2516,2504,2504,2504,2504,2504,2504,2497,2497,2497,2504,2504,2504,2497,2497,2497,2497,2497,2491,2491,2491,2497,2497,2497,2497,2497,2504,2504,2497,2504,2504,2510,2516,2516,2510,2510,2516,2516,2516,2516,2504,2504,2504,2504,2497,2491,2491,2497,2497,2504,2504,2497,2497,2504,2504,2504,2497,2491,2491,2491,2491,2491,2491,2491,2485,2485,2479,2479,2473,2473,2467,2461,2461,2467,2467,2467,2467,2467,2473,2479,2473,2473,2473,2473,2473,2467,2467,2461,2467,2467,2467,2467,2467,2467,2461,2461,2461,2455,2455,2461,2455,2461,2461,2467,2467,2461,2455,2450,2455,2450,2450,2444,2444,2438,2438,2438,2438,2432,2432,2432,2432,2438,2438,2444,2444,2444,2450,2455,2455,2455,2455,2455,2455,2450,2450,2450,2444,2438,2432,2432,2426,2432,2432,2432,2432,2432,2432,2432,2438,2438,2438,2438,2438,2438,2438,2432,2432,2432,2426,2426,2426,2426,2426,2426,2426,2421,2421,2421,2421,2415,2415,2415,2415,2409,2409,2409,2409,2409,2415,2415,2421,2415,2421,2415,2421,2421,2415,2415,2415,2409,2415,2415,2415,2415,2415,2421,2421,2415,2415,2409,2415,2415,2415,2415,2409,2409,2409,2409,2403,2398,2398,2392,2398,2398,2398,2403,2409,2415,2415,2415,2409,2409,2409,2403,2403,2398,2398,2398,2398,2398,2392,2398,2398,2398,2398,2398,2398,2398,2398,2398,2398,2392,2387,2387,2381,2375,2364,2359,2354,2354,2354,2354,2354,2354,2348,2348,2343,2337,2337,2332,2327,2316,2311,2311,2301,2295,2280,2275,2270,2265,2255,2250,2240,2235,2230,2225,2225,2221,2221,2221,2225,2225,2225,2225,2221,2216,2206,2201,2187,2183,2178,2173,2164,2159,2155,2150,2146,2137,2132,2128,2124,2119,2115,2106,2106,2102,2097,2093,2089,2089,2089,2085,2080,2072,2047,2039,2027,2015,2007,1999,1991,1991,1987,1979,1976,1976,1976,1976,1979,1979,1991,1999,2011,2015,2019,2019,2011,2007,2003,2003,2003,1987,1983,1976,1972,1964,1960,1957,1953,1949,1946,1942,1938,1927,1924,0,0,0,0
2599,2599,2599,2599,2606,2612,2612,2619,2612,2612,2606,2606,2599,2599,2599,2599,2599,2599,2599,2599,2599,2606,2599,2599,2599,2593,2593,2593,2593,2599,2593,2599,2599,2606,2606,2612,2612,2606,2606,2606,2606,2606,2606,2599,2599,2593,2593,2593,2593,2586,2586,2586,2586,2586,2593,2593,2593,2593,2593,2593,2586,2593,2586,2579,2579,2579,2579,2579,2579,2579,2586,2593,2599,2606,2606,2606,2599,2599,2593,2593,2593,2586,2579,2586,2586,2586,2593,2593,2586,2586,2579,2586,2586,2579,2579,2579,2579,2579,2579,2586,2579,2579,2579,2579,2579,2573,2573,2573,2573,2579,2573,2573,2573,2573,2573,2579,2573,2573,2567,2567,2567,2573,2567,2567,2560,2560,2554,2554,2560,2560,2560,2560,2560,2560,2560,2560,2560,2560,2560,2560,2560,2554,2560,2567,2560,2560,2560,2554,2554,2547,2541,2535,2535,2535,2528,2528,2528,2528,2528,2535,2535,2535,2535,2541,2541,2541,2541,2541,2541,2541,2541,2541,2535,2535,2528,2528,2528,2528,2528,2528,2528,2528,2535,2535,2535,2535,2528,2528,2522,2522,2516,2516,2516,2516,2516,2516,2516,2516,2516,2522,2522,2522,2522,2528,2528,2535,2528,2522,2522,2516,2522,2516,2516,2516,2522,2522,2522,2528,2528,2522,2522,2516,2510,2510,2497,2491,2497,2497,2497,2504,2504,2504,2510,2516,2516,2510,2510,2516,2516,2516,2510,2510,2516,2516,2516,2510,2516,2510,2510,2510,2510,2504,2504,2510,2510,2510,2510,2510,2510,2516,2510,2510,2510,2516,2510,2504,2504,2504,2504,2504,2497,2497,2497,2504,2504,2504,2504,2497,2504,2504,2504,2497,2491,2497,2497,2497,2497,2497,2497,2497,2497,2497,2497,2504,2510,2516,2516,2516,2516,2522,2522,2516,2516,2510,2510,2510,2510,2504,2497,2497,2504,2504,2510,2510,2504,2504,2504,2510,2504,2497,2491,2491,2491,2491,2491,2491,2491,2485,2485,2485,2479,2473,2473,2467,2467,2461,2467,2467,2467,2467,2467,2473,2479,2479,2473,2473,2467,2473,2473,2467,2467,2467,2473,2473,2473,2473,2467,2461,2461,2461,2461,2461,2461,2461,2467,2467,2473,2473,2467,2467,2467,2467,2467,2461,2455,2450,2444,2444,2444,2444,2438,2438,2438,2438,2444,2444,2444,2450,2450,2455,2461,2461,2461,2461,2461,2461,2455,2455,2455,2450,2444,2438,2432,2432,2432,2432,2432,2432,2438,2438,2444,2444,2444,2444,2444,2444,2444,2438,2438,2432,2438,2432,2432,2432,2432,2432,2432,2432,2426,2426,2426,2426,2421,2421,2421,2415,2415,2415,2415,2415,2415,2421,2421,2421,2426,2426,2426,2426,2426,2421,2421,2415,2415,2421,2415,2415,2415,2415,2421,2421,2415,2415,2415,2421,2421,2421,2421,2415,2415,2415,2415,2409,2403,2403,2403,2403,2403,2403,2409,2415,2415,2421,2415,2415,2415,2409,2403,2403,2398,2398,2398,2398,2398,2398,2398,2398,2403,2403,2403,2403,2403,2403,2398,2398,2398,2392,2392,2387,2381,2370,2364,2359,2359,2359,2354,2354,2354,2343,2343,2337,2332,2327,2327,2321,2316,2311,2306,2295,2290,2280,2275,2265,2265,2255,2250,2240,2230,2230,2225,2221,2216,2216,2216,2221,2221,2221,2216,2211,2211,2206,2201,2187,2183,2178,2173,2159,2155,2150,2146,2137,2132,2128,2128,2119,2115,2110,2106,2106,2097,2097,2093,2089,2089,2089,2089,2080,2072,2047,2039,2023,2015,2003,1995,1991,1987,1983,1976,1976,1976,1976,1976,1976,1979,1983,1991,2007,2015,2019,2019,2011,2011,2003,2003,1999,1987,1983,1972,1968,1964,1960,1957,1953,1946,1946,1942,1938,1924,1920,0,0,0,0
2599,2599,2599,2606,2612,2619,2619,2626,2619,2619,2612,2606,2599,2599,2606,2599,2606,2606,2606,2606,2612,2606,2606,2606,2606,2599,2593,2593,2593,2599,2599,2599,2599,2606,2612,2612,2612,2612,2612,2612,2612,2606,2606,2606,2606,2599,2599,2599,2593,2593,2593,2593,2593,2593,2593,2593,2593,2593,2593,2593,2593,2593,2586,2586,2586,2586,2586,2586,2586,2586,2593,2599,2599,2612,2606,2606,2599,2599,2593,2593,2593,2586,2586,2586,2586,2586,2593,2593,2593,2586,2586,2586,2586,2586,2586,2586,2586,2586,2586,2586,2586,2586,2586,2586,2586,2579,2579,2573,2579,2579,2579,2579,2573,2579,2579,2579,2579,2579,2573,2573,2567,2573,2573,2573,2567,2567,2560,2567,2567,2567,2560,2560,2567,2567,2567,2560,2560,2560,2560,2560,2567,2560,2560,2567,2567,2560,2560,2560,2554,2554,2554,2547,2547,2547,2541,2541,2535,2535,2535,2541,2541,2541,2541,2547,2547,2554,2547,2547,2547,2547,2547,2547,2535,2535,2535,2528,2528,2528,2528,2528,2535,2535,2535,2535,2541,2541,2528,2528,2528,2528,2528,2528,2522,2522,2528,2528,2522,2522,2522,2522,2522,2522,2522,2528,2528,2528,2528,2528,2528,2522,2522,2522,2522,2522,2528,2528,2528,2528,2528,2528,2522,2522,2516,2510,2504,2497,2504,2504,2504,2510,2510,2510,2516,2522,2522,2516,2516,2516,2522,2522,2516,2516,2516,2522,2522,2516,2516,2516,2516,2516,2510,2510,2510,2516,2510,2510,2510,2510,2510,2510,2510,2510,2510,2510,2504,2504,2504,2504,2504,2504,2504,2497,2497,2504,2504,2504,2497,2497,2504,2504,2504,2504,2497,2504,2504,2504,2504,2497,2497,2504,2504,2497,2497,2504,2510,2516,2516,2516,2516,2522,2522,2522,2522,2516,2510,2510,2510,2510,2504,2504,2504,2510,2510,2510,2510,2510,2510,2510,2510,2497,2497,2491,2497,2497,2491,2491,2491,2491,2485,2485,2479,2473,2473,2461,2461,2461,2461,2467,2467,2467,2467,2473,2473,2473,2473,2473,2467,2473,2473,2473,2473,2473,2473,2473,2473,2473,2467,2467,2461,2467,2467,2467,2467,2467,2473,2473,2479,2479,2473,2473,2473,2473,2473,2473,2461,2461,2455,2455,2455,2450,2450,2450,2450,2450,2455,2455,2455,2455,2455,2461,2461,2461,2461,2461,2467,2467,2461,2461,2461,2455,2450,2444,2438,2432,2432,2438,2432,2438,2438,2438,2444,2450,2450,2450,2450,2455,2450,2450,2444,2444,2444,2444,2438,2438,2438,2432,2438,2438,2432,2432,2432,2432,2426,2421,2421,2421,2421,2421,2421,2421,2421,2421,2426,2426,2426,2426,2426,2426,2426,2426,2421,2426,2421,2421,2421,2421,2421,2421,2421,2421,2421,2421,2421,2421,2421,2421,2421,2421,2421,2421,2421,2415,2415,2415,2415,2415,2409,2415,2415,2421,2421,2421,2415,2415,2415,2415,2409,2403,2398,2398,2398,2398,2398,2398,2398,2403,2403,2403,2403,2403,2403,2403,2403,2403,2398,2398,2392,2392,2387,2381,2375,2364,2364,2359,2354,2354,2348,2337,2337,2332,2327,2321,2321,2316,2311,2306,2306,2295,2290,2285,2275,2265,2265,2255,2250,2240,2235,2230,2225,2221,2216,2211,2211,2216,2216,2216,2211,2211,2206,2201,2201,2187,2183,2178,2169,2159,2155,2146,2141,2137,2132,2128,2124,2119,2115,2110,2106,2106,2097,2097,2093,2089,2089,2093,2089,2080,2068,2047,2035,2023,2011,2003,1999,1987,1983,1979,1976,1972,1972,1972,1972,1972,1976,1979,1987,2003,2011,2015,2019,2011,2011,2003,1999,1999,1987,1979,1972,1964,1960,1957,1953,1949,1946,1946,1942,1934,1924,0,0,0,0,0
2606,2606,2606,2612,2612,2619,2626,2626,2619,2619,2619,2612,2612,2612,2612,2612,2612,2612,2612,2612,2612,2612,2612,2612,2612,2606,2599,2599,2599,2606,2606,2606,2612,2612,2619,2619,2619,2619,2612,2612,2612,2612,2612,2612,2606,2606,2606,2599,2599,2599,2593,2593,2599,2599,2599,2599,2599,2599,2599,2599,2599,2599,2593,2593,2593,2593,2599,2593,2599,2599,2599,2599,2606,2612,2606,2606,2606,2599,2599,2593,2593,2586,2586,2586,2593,2593,2599,2599,2599,2593,2593,2593,2586,2586,2586,2586,2586,2586,2593,2593,2593,2593,2593,2593,2586,2586,2579,2579,2579,2586,2579,2579,2579,2586,2586,2586,2579,2579,2579,2573,2573,2579,2573,2573,2573,2573,2567,2573,2573,2567,2573,2567,2567,2573,2567,2567,2567,2567,2567,2567,2567,2567,2567,2573,2567,2567,2567,2560,2560,2567,2567,2560,2560,2567,2560,2554,2554,2554,2547,2554,2547,2547,2547,2554,2554,2554,2554,2554,2547,2547,2547,2547,2541,2541,2535,2535,2535,2535,2535,2535,2535,2535,2541,2541,2541,2541,2535,2535,2535,2535,2528,2528,2528,2528,2535,2535,2535,2535,2528,2528,2528,2528,2528,2528,2535,2535,2528,2528,2535,2535,2528,2528,2528,2528,2535,2535,2535,2535,2535,2528,2528,2522,2516,2516,2504,2504,2510,2504,2510,2516,2516,2516,2522,2528,2522,2522,2522,2522,2528,2522,2522,2522,2522,2528,2522,2522,2522,2516,2516,2516,2510,2510,2510,2516,2510,2510,2510,2510,2510,2510,2510,2510,2510,2510,2504,2504,2504,2504,2510,2504,2504,2497,2497,2497,2497,2497,2497,2497,2497,2504,2504,2504,2504,2510,2510,2510,2504,2504,2504,2510,2510,2510,2504,2510,2510,2522,2522,2522,2522,2522,2522,2522,2522,2516,2516,2516,2516,2510,2510,2510,2510,2510,2510,2510,2510,2510,2510,2510,2504,2497,2497,2497,2497,2497,2491,2497,2497,2491,2491,2491,2485,2479,2479,2473,2467,2467,2467,2467,2467,2467,2467,2473,2473,2473,2473,2473,2473,2473,2473,2473,2473,2473,2473,2473,2473,2473,2473,2467,2467,2467,2467,2467,2473,2467,2473,2479,2485,2485,2479,2479,2479,2479,2479,2479,2467,2461,2461,2461,2461,2461,2461,2461,2461,2461,2461,2461,2461,2461,2461,2461,2461,2461,2461,2461,2467,2467,2467,2467,2467,2461,2461,2450,2444,2438,2438,2444,2438,2438,2438,2444,2450,2450,2450,2455,2455,2455,2455,2455,2455,2450,2450,2450,2450,2450,2450,2444,2444,2444,2438,2438,2438,2432,2432,2426,2426,2426,2426,2426,2426,2426,2426,2426,2432,2432,2432,2432,2426,2426,2426,2432,2426,2426,2426,2426,2426,2426,2426,2426,2426,2421,2421,2421,2421,2426,2426,2426,2426,2426,2426,2426,2426,2421,2421,2421,2426,2421,2421,2421,2421,2426,2426,2421,2415,2415,2415,2415,2409,2403,2403,2403,2403,2403,2403,2403,2403,2409,2409,2409,2403,2403,2403,2403,2398,2398,2398,2398,2398,2392,2392,2381,2375,2370,2364,2359,2354,2348,2343,2337,2332,2327,2321,2316,2316,2311,2311,2306,2306,2295,2290,2285,2275,2270,2265,2260,2255,2245,2235,2230,2225,2221,2211,2206,2201,2206,2206,2211,2211,2206,2206,2201,2201,2192,2183,2178,2169,2159,2155,2150,2141,2137,2132,2128,2124,2115,2115,2110,2106,2102,2097,2097,2093,2089,2093,2093,2089,2080,2068,2047,2035,2023,2011,2003,1999,1987,1983,1979,1976,1972,1972,1972,1968,1972,1972,1976,1983,1995,2007,2011,2015,2011,2011,2003,1999,1999,1983,1979,1972,1964,1957,1953,1953,1949,1946,1946,1942,1934,1920,0,0,0,0,0
2612,2606,2606,2612,2619,2626,2626,2633,2626,2626,2626,2619,2619,2626,2626,2626,2626,2626,2619,2619,2619,2612,2612,2612,2612,2612,2606,2612,2612,2612,2612,2619,2619,2619,2619,2626,2626,2626,2619,2619,2619,2619,2619,2619,2612,2606,2606,2606,2599,2599,2599,2599,2599,2599,2599,2599,2606,2606,2606,2606,2606,2606,2599,2599,2599,2599,2606,2599,2606,2606,2606,2612,2612,2612,2606,2606,2606,2606,2599,2599,2593,2593,2593,2599,2599,2599,2606,2612,2606,2606,2599,2599,2593,2593,2593,2586,2586,2593,2593,2593,2593,2593,2593,2593,2593,2586,2586,2586,2586,2586,2586,2586,2579,2586,2586,2586,2586,2586,2586,2579,2579,2586,2579,2579,2579,2579,2579,2579,2579,2579,2579,2579,2579,2579,2573,2573,2573,2573,2573,2573,2573,2567,2573,2573,2573,2567,2567,2567,2560,2567,2567,2567,2567,2567,2567,2560,2560,2560,2554,2560,2560,2554,2554,2554,2560,2560,2554,2554,2554,2554,2554,2554,2547,2547,2541,2541,2535,2541,2541,2535,2541,2541,2547,2547,2554,2547,2541,2541,2541,2541,2541,2541,2541,2535,2541,2541,2541,2535,2535,2535,2528,2528,2528,2535,2535,2535,2535,2535,2535,2541,2541,2541,2535,2541,2541,2535,2541,2541,2535,2535,2528,2522,2522,2516,2516,2510,2510,2516,2516,2522,2522,2522,2528,2528,2528,2528,2528,2528,2528,2528,2528,2528,2528,2535,2528,2528,2522,2522,2516,2516,2510,2510,2510,2516,2510,2510,2510,2510,2510,2510,2510,2510,2510,2510,2510,2510,2510,2504,2510,2504,2504,2497,2497,2497,2497,2497,2504,2504,2504,2510,2510,2510,2516,2516,2516,2516,2510,2510,2510,2510,2510,2510,2510,2510,2516,2528,2528,2528,2528,2528,2528,2528,2528,2516,2516,2516,2516,2516,2510,2510,2516,2516,2516,2516,2516,2510,2510,2510,2510,2497,2497,2497,2497,2497,2497,2497,2497,2497,2497,2497,2491,2485,2485,2473,2473,2467,2467,2473,2473,2473,2473,2479,2479,2479,2479,2479,2473,2473,2479,2473,2473,2479,2479,2473,2479,2473,2473,2473,2473,2473,2473,2473,2473,2473,2479,2479,2485,2485,2485,2485,2485,2485,2485,2479,2473,2467,2473,2473,2473,2473,2467,2467,2467,2467,2467,2467,2461,2461,2461,2461,2467,2467,2467,2467,2467,2473,2473,2467,2467,2467,2467,2461,2455,2450,2450,2450,2444,2444,2444,2450,2450,2455,2455,2455,2455,2455,2455,2455,2455,2455,2455,2461,2461,2455,2455,2455,2455,2455,2450,2444,2444,2438,2438,2432,2432,2432,2438,2438,2432,2432,2432,2432,2432,2438,2432,2432,2432,2432,2432,2432,2432,2426,2426,2432,2426,2426,2426,2426,2426,2426,2426,2426,2426,2432,2432,2432,2432,2432,2432,2432,2432,2432,2426,2426,2432,2432,2426,2426,2426,2426,2426,2426,2421,2421,2421,2421,2415,2409,2409,2409,2409,2409,2409,2409,2409,2409,2409,2409,2403,2403,2403,2403,2398,2398,2398,2398,2398,2392,2392,2387,2381,2375,2375,2364,2359,2354,2348,2337,2332,2327,2321,2316,2316,2311,2311,2306,2306,2295,2290,2285,2275,2270,2265,2260,2250,2245,2235,2230,2221,2216,2201,2192,2187,2192,2197,2197,2197,2197,2201,2201,2201,2187,2178,2173,2164,2159,2155,2150,2141,2137,2132,2128,2124,2115,2110,2106,2102,2097,2093,2089,2089,2085,2085,2085,2085,2076,2068,2047,2035,2027,2011,2003,1999,1987,1983,1979,1976,1972,1972,1968,1968,1968,1972,1972,1979,1987,2003,2011,2011,2011,2011,2007,2003,1999,1983,1979,1968,1964,1957,1949,1953,1949,1946,1942,1938,1931,1920,0,0,0,0,0
2619,2612,2612,2619,2619,2626,2633,2633,2633,2626,2626,2626,2626,2626,2633,2633,2633,2633,2633,2626,2626,2619,2612,2612,2619,2619,2612,2612,2619,2626,2626,2626,2626,2626,2626,2626,2633,2626,2626,2626,2626,2626,2626,2626,2619,2619,2612,2612,2612,2606,2606,2606,2606,2612,2612,2606,2612,2612,2612,2612,2612,2612,2606,2606,2599,2606,2606,2606,2606,2606,2612,2612,2612,2619,2612,2612,2612,2606,2606,2606,2599,2599,2599,2606,2606,2606,2606,2612,2612,2612,2606,2599,2599,2593,2593,2593,2593,2593,2593,2599,2599,2593,2599,2599,2593,2593,2586,2586,2586,2593,2593,2586,2586,2593,2593,2593,2593,2593,2586,2586,2586,2586,2586,2586,2586,2586,2586,2586,2586,2586,2586,2586,2586,2586,2579,2573,2573,2579,2579,2579,2579,2573,2579,2579,2579,2573,2573,2573,2567,2567,2573,2573,2567,2573,2567,2567,2567,2567,2567,2567,2567,2567,2560,2560,2567,2567,2560,2567,2560,2560,2560,2560,2554,2554,2547,2547,2541,2541,2541,2541,2547,2547,2547,2554,2554,2554,2547,2547,2547,2547,2547,2547,2541,2541,2547,2547,2541,2541,2535,2535,2535,2535,2535,2535,2541,2541,2541,2541,2541,2541,2547,2547,2541,2541,2547,2541,2541,2541,2541,2535,2528,2528,2522,2522,2516,2516,2516,2522,2522,2528,2528,2528,2535,2541,2535,2535,2535,2535,2535,2535,2528,2528,2535,2535,2528,2528,2522,2522,2522,2522,2516,2510,2516,2516,2510,2510,2516,2510,2510,2510,2510,2510,2510,2510,2510,2510,2510,2510,2510,2510,2504,2504,2504,2504,2504,2504,2510,2510,2510,2510,2516,2516,2516,2522,2522,2516,2516,2516,2516,2516,2516,2516,2516,2516,2522,2528,2528,2528,2528,2528,2528,2528,2528,2516,2516,2516,2522,2516,2516,2516,2516,2516,2516,2516,2516,2516,2516,2510,2510,2504,2504,2504,2504,2497,2497,2504,2504,2504,2504,2497,2491,2491,2485,2473,2473,2473,2473,2473,2473,2473,2473,2479,2479,2479,2479,2479,2473,2473,2479,2473,2473,2479,2473,2473,2479,2473,2473,2473,2473,2473,2479,2473,2479,2473,2479,2485,2485,2485,2485,2485,2485,2485,2485,2485,2479,2479,2479,2479,2479,2479,2479,2479,2473,2473,2473,2473,2467,2467,2467,2467,2467,2473,2473,2473,2473,2479,2473,2473,2473,2467,2467,2461,2461,2455,2455,2455,2450,2450,2450,2450,2455,2455,2455,2455,2450,2455,2461,2461,2461,2461,2461,2467,2467,2461,2467,2461,2461,2461,2455,2455,2455,2455,2444,2444,2444,2444,2444,2444,2438,2438,2438,2438,2438,2438,2438,2432,2432,2432,2432,2432,2432,2432,2432,2432,2432,2432,2432,2432,2432,2438,2432,2432,2432,2438,2438,2438,2438,2438,2438,2438,2432,2432,2432,2438,2438,2432,2432,2432,2432,2432,2432,2426,2421,2421,2421,2421,2415,2415,2415,2409,2409,2409,2409,2409,2409,2409,2415,2409,2409,2403,2403,2398,2398,2398,2398,2392,2392,2392,2392,2387,2381,2381,2375,2370,2359,2354,2343,2337,2332,2327,2321,2316,2316,2311,2311,2306,2301,2295,2290,2285,2275,2270,2265,2260,2250,2245,2235,2225,2216,2206,2187,2183,2178,2183,2183,2183,2187,2192,2197,2201,2197,2187,2178,2169,2164,2159,2155,2146,2141,2137,2132,2128,2124,2110,2110,2102,2097,2093,2089,2085,2080,2080,2085,2085,2080,2076,2063,2047,2035,2027,2011,2003,1995,1983,1983,1979,1976,1972,1972,1968,1964,1964,1968,1968,1972,1979,1995,2007,2011,2011,2011,2007,2003,1999,1983,1976,1968,1960,1957,1953,1953,1953,1949,1946,1942,1927,1924,0,0,0,0,0
2619,2612,2612,2619,2619,2626,2633,2633,2639,2633,2633,2633,2633,2639,2639,2633,2633,2633,2633,2633,2626,2626,2619,2619,2626,2626,2626,2626,2633,2633,2633,2633,2633,2633,2633,2633,2633,2633,2633,2626,2633,2626,2633,2633,2626,2626,2626,2619,2619,2619,2612,2612,2619,2619,2612,2612,2612,2619,2619,2619,2612,2612,2612,2612,2612,2612,2612,2612,2612,2612,2612,2612,2612,2619,2612,2619,2612,2612,2606,2606,2606,2606,2599,2606,2606,2606,2606,2612,2612,2612,2606,2599,2599,2599,2599,2599,2599,2599,2599,2606,2606,2599,2606,2606,2599,2599,2593,2593,2593,2599,2593,2593,2593,2593,2593,2599,2599,2593,2593,2593,2593,2593,2593,2586,2586,2593,2593,2593,2593,2593,2593,2593,2593,2586,2586,2579,2579,2579,2579,2579,2586,2579,2579,2586,2586,2579,2579,2579,2573,2573,2573,2573,2573,2573,2573,2573,2573,2573,2573,2573,2573,2573,2567,2567,2567,2567,2567,2567,2567,2567,2567,2560,2554,2554,2554,2547,2547,2547,2547,2547,2554,2554,2554,2560,2560,2560,2554,2554,2554,2554,2554,2547,2547,2547,2554,2554,2547,2547,2541,2535,2535,2535,2541,2541,2541,2541,2541,2541,2541,2547,2547,2547,2547,2547,2554,2554,2554,2554,2547,2547,2541,2535,2535,2528,2528,2528,2528,2528,2535,2535,2535,2541,2541,2541,2541,2535,2535,2535,2535,2535,2528,2528,2535,2535,2528,2528,2528,2522,2522,2522,2516,2516,2516,2516,2510,2510,2510,2510,2510,2510,2504,2504,2504,2510,2510,2504,2504,2504,2510,2510,2510,2510,2504,2510,2510,2510,2510,2516,2516,2510,2516,2516,2522,2522,2522,2516,2516,2516,2522,2516,2516,2516,2516,2522,2522,2528,2535,2535,2528,2528,2528,2528,2528,2522,2522,2522,2522,2522,2522,2522,2522,2522,2522,2522,2522,2522,2516,2516,2516,2510,2510,2504,2504,2504,2504,2504,2504,2504,2504,2497,2497,2497,2491,2485,2479,2473,2479,2479,2479,2479,2479,2479,2479,2479,2479,2473,2479,2479,2479,2479,2479,2479,2479,2479,2479,2479,2473,2473,2479,2479,2479,2479,2479,2479,2479,2485,2485,2485,2485,2485,2491,2491,2491,2491,2485,2485,2485,2485,2485,2485,2485,2485,2485,2479,2479,2473,2473,2467,2473,2473,2473,2473,2473,2473,2479,2479,2479,2473,2473,2473,2473,2467,2467,2467,2461,2461,2455,2455,2455,2455,2455,2455,2455,2455,2455,2455,2461,2461,2467,2467,2467,2467,2473,2473,2473,2467,2467,2467,2461,2461,2461,2455,2455,2450,2450,2450,2450,2450,2444,2438,2438,2438,2438,2438,2438,2438,2438,2438,2438,2438,2438,2438,2438,2438,2438,2438,2438,2438,2438,2438,2438,2438,2438,2438,2438,2438,2438,2438,2438,2438,2438,2438,2438,2438,2438,2438,2438,2438,2432,2432,2432,2432,2426,2426,2426,2426,2421,2421,2415,2415,2415,2415,2415,2415,2415,2415,2415,2409,2409,2403,2398,2398,2392,2392,2392,2392,2392,2392,2392,2387,2387,2381,2375,2370,2359,2348,2337,2332,2327,2321,2316,2311,2311,2311,2306,2306,2301,2295,2290,2285,2275,2270,2265,2260,2250,2245,2235,2225,2211,2201,2183,2178,2178,2178,2178,2183,2183,2187,2197,2201,2201,2187,2178,2169,2159,2155,2150,2146,2141,2132,2128,2124,2119,2110,2106,2097,2097,2093,2089,2089,2080,2080,2080,2080,2080,2072,2063,2047,2035,2031,2015,2003,1995,1983,1979,1976,1972,1972,1968,1964,1964,1964,1964,1968,1972,1976,1995,2003,2007,2007,2007,1999,1995,1991,1979,1976,1968,1960,1957,1953,1953,1953,1949,1946,1938,1924,1920,0,0,0,0,0
2619,2619,2612,2619,2626,2626,2639,2639,2646,2639,2639,2646,2646,2646,2646,2639,2639,2639,2639,2639,2633,2633,2626,2633,2633,2633,2633,2633,2633,2639,2639,2639,2633,2633,2633,2633,2639,2633,2633,2633,2639,2633,2639,2639,2639,2633,2633,2626,2626,2626,2619,2619,2619,2619,2619,2619,2626,2626,2626,2626,2619,2619,2619,2619,2619,2619,2619,2612,2619,2619,2619,2619,2619,2619,2619,2619,2619,2619,2612,2606,2606,2606,2606,2606,2606,2606,2606,2612,2612,2612,2606,2599,2599,2599,2599,2599,2599,2599,2606,2606,2606,2606,2606,2606,2606,2599,2599,2593,2593,2599,2593,2593,2593,2593,2593,2593,2593,2593,2599,2599,2599,2599,2599,2599,2599,2599,2599,2599,2599,2599,2599,2599,2593,2593,2586,2579,2579,2586,2586,2586,2593,2593,2593,2593,2593,2593,2593,2586,2579,2579,2579,2579,2579,2579,2579,2579,2573,2579,2573,2579,2579,2573,2573,2573,2573,2573,2573,2573,2567,2567,2567,2567,2560,2560,2560,2554,2554,2554,2554,2554,2560,2560,2560,2560,2560,2560,2560,2554,2560,2560,2560,2560,2554,2554,2554,2560,2554,2554,2547,2547,2541,2541,2541,2547,2547,2547,2547,2547,2547,2554,2554,2554,2554,2554,2554,2554,2554,2554,2554,2554,2554,2547,2541,2541,2541,2541,2541,2541,2541,2547,2547,2547,2554,2554,2547,2541,2541,2535,2535,2535,2535,2535,2535,2535,2535,2535,2535,2528,2528,2522,2522,2516,2522,2522,2516,2516,2516,2516,2516,2510,2504,2504,2504,2510,2510,2504,2510,2510,2510,2510,2510,2510,2510,2516,2510,2510,2516,2516,2516,2510,2510,2516,2522,2522,2522,2522,2522,2522,2522,2522,2516,2516,2516,2522,2528,2528,2535,2535,2535,2535,2528,2528,2528,2528,2522,2522,2522,2528,2528,2528,2528,2522,2522,2522,2522,2522,2516,2516,2516,2510,2510,2510,2510,2504,2504,2510,2510,2510,2510,2504,2504,2497,2497,2491,2485,2479,2479,2479,2479,2479,2479,2479,2479,2479,2479,2473,2479,2479,2479,2479,2479,2479,2479,2479,2479,2485,2479,2479,2479,2485,2485,2485,2485,2479,2485,2485,2485,2485,2485,2491,2491,2491,2497,2491,2485,2485,2485,2491,2491,2491,2491,2491,2491,2491,2485,2485,2479,2479,2479,2479,2479,2479,2479,2479,2479,2479,2479,2479,2473,2473,2473,2473,2473,2467,2467,2467,2461,2467,2461,2461,2461,2461,2461,2461,2461,2461,2461,2467,2467,2467,2473,2473,2473,2473,2473,2473,2473,2467,2467,2473,2467,2461,2461,2461,2455,2455,2455,2455,2450,2444,2444,2444,2444,2444,2438,2438,2438,2438,2438,2438,2438,2438,2438,2438,2438,2444,2444,2444,2444,2444,2444,2444,2444,2444,2444,2444,2444,2444,2444,2438,2438,2438,2438,2438,2444,2444,2438,2438,2438,2432,2432,2432,2426,2426,2426,2426,2426,2426,2432,2426,2426,2426,2426,2421,2421,2415,2415,2409,2403,2398,2398,2392,2392,2392,2392,2387,2387,2387,2387,2387,2381,2375,2370,2359,2348,2343,2332,2327,2321,2316,2311,2306,2306,2306,2306,2301,2301,2295,2290,2285,2275,2270,2265,2260,2250,2245,2235,2221,2206,2192,2183,2173,2173,2173,2173,2173,2178,2183,2187,2197,2197,2187,2178,2169,2164,2159,2155,2146,2137,2128,2124,2115,2110,2102,2097,2097,2097,2093,2089,2089,2080,2080,2080,2080,2076,2068,2059,2047,2043,2035,2019,2011,1999,1979,1979,1976,1972,1968,1964,1964,1960,1960,1964,1964,1972,1976,1995,1999,2003,2003,2003,1999,1991,1983,1976,1972,1964,1957,1953,1949,1949,1949,1942,1938,1934,1924,1920,0,0,0,0,0
2626,2626,2619,2626,2633,2633,2646,2646,2653,2653,2646,2653,2653,2653,2653,2653,2646,2646,2646,2639,2639,2639,2633,2633,2633,2639,2639,2639,2639,2646,2646,2646,2646,2639,2639,2639,2639,2639,2639,2639,2639,2639,2639,2646,2639,2639,2633,2633,2626,2626,2626,2626,2626,2626,2626,2626,2626,2626,2626,2633,2626,2626,2626,2619,2619,2619,2619,2619,2619,2619,2619,2619,2619,2619,2619,2619,2626,2619,2619,2619,2612,2612,2612,2619,2612,2612,2612,2612,2612,2612,2606,2606,2606,2599,2606,2599,2599,2606,2606,2612,2612,2612,2612,2612,2612,2606,2606,2599,2599,2599,2593,2593,2593,2593,2593,2593,2599,2599,2599,2599,2606,2606,2606,2606,2606,2606,2606,2606,2599,2599,2599,2599,2606,2599,2593,2586,2586,2593,2593,2593,2593,2593,2599,2599,2606,2599,2599,2593,2593,2586,2586,2586,2586,2586,2586,2586,2586,2586,2579,2579,2579,2579,2579,2579,2579,2573,2573,2573,2573,2573,2573,2567,2567,2567,2567,2560,2560,2567,2560,2560,2560,2567,2567,2567,2567,2567,2560,2560,2560,2567,2560,2560,2560,2560,2560,2560,2554,2554,2547,2547,2547,2547,2541,2547,2554,2554,2554,2554,2554,2554,2554,2560,2554,2554,2560,2560,2560,2554,2554,2560,2554,2554,2547,2547,2547,2554,2554,2554,2554,2554,2554,2554,2554,2554,2547,2547,2547,2541,2541,2541,2535,2535,2535,2541,2541,2535,2535,2535,2535,2528,2528,2528,2522,2522,2522,2516,2522,2522,2522,2516,2510,2510,2510,2516,2516,2510,2510,2510,2516,2516,2516,2516,2516,2516,2516,2516,2516,2516,2516,2510,2510,2516,2522,2522,2522,2522,2522,2522,2528,2528,2522,2522,2522,2522,2528,2528,2535,2535,2535,2535,2535,2535,2535,2528,2528,2522,2528,2528,2528,2528,2528,2528,2528,2528,2528,2522,2516,2516,2516,2510,2510,2510,2504,2504,2504,2510,2510,2510,2510,2504,2504,2497,2497,2491,2491,2485,2479,2479,2485,2485,2485,2485,2479,2479,2485,2479,2479,2479,2479,2479,2485,2485,2485,2485,2485,2491,2485,2485,2491,2491,2485,2485,2485,2479,2479,2485,2485,2485,2485,2485,2491,2491,2497,2491,2491,2491,2491,2491,2497,2497,2497,2491,2491,2497,2491,2491,2485,2485,2485,2485,2485,2479,2479,2479,2479,2479,2479,2479,2473,2473,2479,2479,2473,2473,2473,2473,2467,2473,2467,2467,2467,2467,2467,2467,2467,2467,2467,2473,2473,2473,2473,2479,2479,2479,2479,2473,2473,2473,2473,2473,2473,2467,2467,2461,2461,2461,2461,2455,2450,2450,2444,2444,2444,2444,2438,2444,2444,2438,2444,2444,2450,2450,2450,2450,2450,2455,2455,2455,2450,2450,2450,2450,2450,2450,2450,2450,2444,2444,2444,2444,2444,2438,2438,2444,2444,2444,2444,2444,2438,2438,2432,2432,2432,2432,2432,2432,2432,2432,2438,2438,2432,2432,2426,2421,2421,2415,2415,2409,2398,2398,2392,2387,2387,2387,2387,2387,2387,2387,2387,2381,2375,2370,2359,2354,2343,2332,2327,2321,2316,2311,2311,2306,2306,2306,2306,2301,2295,2295,2290,2285,2275,2270,2260,2260,2250,2240,2230,2216,2201,2192,2178,2173,2169,2169,2173,2173,2173,2178,2183,2192,2192,2183,2178,2169,2164,2159,2155,2146,2137,2124,2119,2110,2106,2102,2097,2093,2093,2093,2089,2085,2080,2080,2076,2076,2072,2068,2055,2051,2043,2035,2023,2011,1991,1976,1972,1968,1964,1964,1964,1960,1960,1960,1960,1964,1968,1976,1991,1995,2003,2003,1999,1991,1983,1979,1972,1968,1960,1957,1953,1946,1946,1946,1938,1934,1931,1924,1920,1924,0,0,0,0
2633,2633,2633,2633,2639,2639,2646,2646,2660,2660,2653,2653,2653,2646,2653,2646,2646,2646,2646,2639,2639,2639,2633,2633,2639,2639,2639,2646,2646,2653,2660,2653,2653,2646,2646,2639,2639,2639,2633,2633,2639,2633,2633,2639,2639,2633,2633,2633,2633,2633,2633,2633,2633,2633,2633,2639,2639,2639,2639,2639,2633,2633,2626,2626,2626,2619,2619,2619,2619,2619,2619,2626,2626,2626,2626,2626,2626,2626,2626,2626,2619,2619,2626,2626,2619,2619,2619,2619,2619,2619,2612,2612,2606,2606,2606,2606,2606,2606,2612,2612,2612,2612,2619,2619,2612,2612,2606,2599,2599,2599,2599,2593,2593,2593,2593,2599,2599,2599,2606,2606,2606,2606,2606,2606,2606,2606,2606,2606,2606,2599,2599,2606,2606,2599,2593,2593,2593,2593,2599,2599,2599,2599,2599,2606,2612,2606,2606,2599,2599,2593,2593,2593,2593,2593,2593,2593,2593,2593,2593,2586,2586,2586,2586,2586,2586,2586,2579,2579,2579,2579,2573,2573,2573,2573,2567,2567,2567,2567,2567,2567,2567,2567,2567,2573,2573,2567,2567,2560,2567,2567,2560,2560,2560,2560,2560,2567,2560,2554,2554,2554,2547,2547,2547,2547,2554,2554,2554,2554,2554,2560,2560,2560,2560,2560,2560,2560,2560,2560,2560,2560,2560,2554,2554,2547,2554,2554,2554,2554,2554,2560,2560,2560,2560,2560,2560,2554,2554,2554,2547,2547,2541,2541,2541,2541,2541,2541,2541,2535,2535,2535,2535,2535,2535,2535,2528,2528,2528,2528,2528,2522,2516,2516,2516,2522,2522,2516,2516,2516,2516,2516,2516,2522,2522,2522,2516,2516,2522,2522,2516,2510,2510,2516,2522,2522,2528,2528,2528,2528,2535,2535,2535,2528,2528,2528,2528,2535,2535,2535,2535,2535,2535,2535,2535,2535,2528,2528,2528,2535,2535,2535,2535,2535,2528,2528,2528,2522,2522,2516,2516,2510,2510,2510,2510,2504,2510,2510,2510,2510,2516,2504,2504,2504,2497,2497,2497,2491,2491,2491,2491,2491,2491,2491,2485,2485,2485,2485,2485,2485,2485,2485,2491,2491,2491,2485,2485,2491,2491,2485,2491,2491,2491,2485,2485,2485,2485,2485,2485,2485,2491,2491,2491,2491,2491,2491,2491,2491,2491,2491,2497,2497,2504,2497,2497,2497,2497,2497,2491,2491,2491,2491,2485,2485,2485,2479,2479,2479,2479,2479,2479,2479,2479,2479,2479,2479,2479,2479,2473,2479,2473,2473,2473,2473,2473,2473,2473,2473,2473,2473,2473,2473,2479,2479,2479,2479,2479,2479,2479,2479,2473,2479,2473,2473,2473,2467,2467,2467,2467,2461,2455,2455,2450,2450,2450,2444,2444,2444,2444,2444,2450,2455,2455,2455,2455,2455,2455,2461,2461,2461,2455,2455,2450,2455,2450,2455,2455,2455,2450,2450,2450,2444,2444,2444,2438,2444,2450,2450,2450,2450,2444,2438,2438,2438,2432,2432,2432,2432,2432,2444,2444,2438,2438,2432,2432,2426,2421,2415,2409,2403,2398,2392,2387,2387,2387,2387,2387,2387,2387,2381,2381,2375,2364,2359,2348,2343,2332,2327,2321,2316,2311,2311,2306,2306,2306,2306,2301,2301,2295,2295,2285,2285,2275,2270,2265,2260,2255,2245,2235,2221,2206,2192,2178,2173,2169,2169,2169,2169,2173,2173,2178,2183,2187,2178,2173,2169,2164,2159,2155,2141,2137,2119,2115,2106,2102,2097,2093,2093,2089,2089,2085,2080,2076,2076,2076,2072,2068,2063,2055,2047,2043,2035,2027,2011,1991,1968,1964,1964,1960,1957,1957,1953,1953,1957,1960,1960,1964,1972,1983,1991,1995,1995,1995,1987,1976,1976,1972,1968,1960,1957,1957,1949,1949,1946,1938,1934,1931,1924,1924,1924,0,0,0,0
2639,2639,2639,2639,2646,2646,2653,2653,2660,2667,2653,2653,2653,2653,2653,2646,2646,2646,2646,2639,2639,2639,2639,2639,2639,2646,2653,2653,2660,2660,2667,2660,2667,2653,2653,2646,2646,2639,2633,2633,2639,2633,2633,2633,2633,2639,2633,2633,2633,2633,2633,2639,2639,2639,2646,2653,2660,2660,2660,2653,2646,2646,2639,2633,2626,2626,2626,2626,2626,2626,2626,2626,2626,2626,2626,2626,2626,2633,2626,2626,2626,2626,2626,2626,2626,2626,2626,2626,2626,2619,2612,2612,2612,2612,2612,2606,2612,2612,2612,2619,2612,2612,2619,2619,2619,2612,2612,2612,2612,2612,2606,2606,2606,2599,2599,2599,2606,2606,2606,2606,2606,2606,2606,2606,2606,2612,2612,2606,2606,2606,2606,2606,2606,2599,2599,2593,2599,2599,2599,2599,2599,2606,2606,2606,2612,2606,2606,2606,2606,2599,2599,2599,2599,2599,2599,2599,2599,2599,2593,2593,2593,2593,2593,2593,2593,2593,2593,2593,2593,2586,2586,2586,2579,2579,2573,2573,2573,2573,2573,2573,2573,2573,2573,2573,2573,2573,2567,2567,2567,2567,2567,2567,2567,2567,2567,2567,2567,2560,2560,2560,2554,2554,2554,2554,2554,2560,2560,2554,2554,2567,2567,2560,2560,2560,2567,2560,2567,2560,2560,2567,2567,2560,2560,2554,2560,2567,2567,2567,2567,2567,2567,2573,2573,2573,2567,2567,2560,2560,2554,2554,2547,2541,2541,2547,2547,2541,2541,2541,2541,2541,2541,2541,2535,2535,2535,2528,2535,2535,2535,2535,2522,2522,2528,2528,2528,2522,2522,2522,2522,2522,2522,2528,2528,2522,2522,2522,2528,2528,2522,2522,2516,2522,2528,2528,2528,2535,2535,2535,2541,2547,2541,2541,2535,2541,2535,2541,2541,2535,2535,2535,2535,2535,2535,2535,2528,2528,2528,2535,2535,2535,2535,2535,2535,2535,2535,2528,2522,2522,2522,2516,2516,2516,2510,2510,2510,2516,2516,2516,2516,2510,2504,2504,2504,2497,2497,2497,2497,2497,2497,2497,2497,2497,2497,2491,2497,2497,2497,2491,2491,2491,2491,2491,2491,2491,2491,2491,2491,2491,2497,2497,2497,2491,2491,2485,2491,2491,2491,2491,2491,2491,2491,2491,2497,2491,2491,2491,2491,2491,2497,2497,2504,2504,2504,2504,2504,2497,2497,2497,2497,2497,2491,2491,2491,2485,2491,2491,2485,2485,2485,2485,2485,2485,2485,2485,2485,2485,2479,2479,2479,2479,2479,2479,2479,2473,2473,2473,2473,2479,2479,2479,2479,2479,2485,2485,2485,2485,2479,2479,2479,2479,2473,2473,2473,2473,2473,2473,2473,2467,2467,2461,2461,2455,2455,2450,2450,2450,2450,2450,2455,2461,2461,2461,2461,2461,2461,2467,2461,2461,2461,2461,2461,2461,2455,2461,2461,2461,2455,2455,2450,2444,2444,2444,2444,2444,2450,2455,2455,2455,2450,2450,2444,2444,2444,2438,2438,2438,2438,2450,2450,2444,2438,2432,2432,2426,2421,2415,2409,2403,2398,2392,2387,2381,2381,2381,2381,2381,2381,2375,2375,2364,2354,2343,2343,2332,2332,2327,2321,2316,2316,2311,2306,2306,2306,2301,2301,2295,2295,2290,2285,2285,2275,2270,2265,2260,2255,2245,2235,2221,2206,2192,2173,2169,2169,2169,2169,2169,2169,2169,2178,2183,2183,2173,2173,2169,2159,2155,2150,2146,2137,2115,2110,2102,2097,2093,2089,2089,2085,2085,2085,2080,2076,2076,2076,2068,2068,2063,2055,2051,2047,2039,2027,2015,1987,1964,1964,1960,1957,1957,1953,1949,1949,1953,1953,1957,1960,1968,1979,1983,1991,1987,1987,1979,1972,1972,1968,1968,1960,1957,1957,1949,1949,1949,1942,1934,1931,1924,1924,0,0,0,0,0
