0,0,0,0,0,0,0,0,0,0,0,0,0,0,0,0,0,0,0,0,0,0,0,0,0,0,0,0,0,0,0,0,0,0,0,0,0,0,0,0,0,0,0,0,0,0,0,0,0,0,0,0,0,0,0,0,0,0,0,0,0,0,0,0,0,0,0,0,0,0,0,0,0,0,0,0,0,0,0,0,0,0,0,0,0,0,0,0,0,0,0,0,0,0,0,0,0,0,0,0,0,0,0,0,0,0,0,0,0,0,0,0,0,0,0,0,0,0,0,0,0,0,0,0,0,0,0,0,0,0,0,0,0,0,0,0,0,0,0,0,0,0,0,0,0,0,0,0,0,0,0,0,0,0,0,0,0,0,0,0,0,0,0,0,0,0,0,0,0,0,0,0,0,0,0,0,0,0,0,0,0,0,0,0,0,0,0,0,0,0,0,0,0,0,0,0,0,0,0,0,0,0,0,0,0,0,0,0,0,0,0,0,799,792,785,781,0,768,763,760,756,753,752,749,747,744,741,739,738,0,0,0,675,672,669,666,662,660,658,655,653,652,650,650,649,649,650,649,649,649,649,648,648,647,647,646,645,643,642,641,640,638,636,634,633,631,629,627,626,624,622,622,621,621,621,621,622,623,624,626,628,630,633,635,640,642,646,647,652,657,660,663,668,669,671,671,672,673,673,673,673,674,673,673,673,673,673,673,672,672,670,669,668,667,666,666,665,665,0,0
0,0,0,0,0,0,0,0,0,0,0,0,0,0,0,0,0,0,0,0,0,0,0,0,0,0,0,0,0,0,0,0,0,0,0,0,0,0,0,0,0,0,0,0,0,0,0,0,0,0,0,0,0,0,0,0,0,0,0,0,0,0,0,0,0,0,0,0,0,0,0,0,0,0,0,0,0,0,0,0,0,0,0,0,0,0,0,0,0,0,0,0,0,0,0,0,0,0,0,0,0,0,0,0,0,0,0,0,0,0,0,0,0,0,0,0,0,0,0,0,0,0,0,0,0,0,0,0,0,0,0,0,0,0,0,0,0,0,0,0,0,0,0,0,0,0,0,0,0,0,0,0,0,0,0,0,0,0,0,0,0,0,0,0,0,0,0,0,0,0,0,0,0,0,0,0,0,0,0,0,0,0,0,0,0,0,0,0,0,0,0,0,0,0,0,0,0,0,0,0,0,0,0,0,0,0,0,0,0,0,0,805,800,795,0,780,0,771,765,762,757,755,753,751,748,745,743,741,739,0,0,0,0,672,669,666,662,659,657,655,654,653,650,650,649,649,649,649,649,648,648,648,647,647,646,645,644,642,641,640,638,636,635,633,632,630,628,627,625,623,622,622,620,620,620,621,621,622,624,625,628,630,634,635,640,643,646,647,652,657,660,663,667,668,670,671,672,673,673,673,673,673,672,673,673,672,672,671,670,669,669,669,668,667,666,665,664,665,0,0
0,0,0,0,0,0,0,0,0,0,0,0,0,0,0,0,0,0,0,0,0,0,0,0,0,0,0,0,0,0,0,0,0,0,0,0,0,0,0,0,0,0,0,0,0,0,0,0,0,0,0,0,0,0,0,0,0,0,0,0,0,0,0,0,0,0,0,0,0,0,0,0,0,0,0,0,0,0,0,0,0,0,0,0,0,0,0,0,0,0,0,0,0,0,0,0,0,0,0,0,0,0,0,0,0,0,0,0,0,0,0,0,0,0,0,0,0,0,0,0,0,0,0,0,0,0,0,0,0,0,0,0,0,0,0,0,0,0,0,0,0,0,0,0,0,0,0,0,0,0,0,0,0,0,0,0,0,0,0,0,0,0,0,0,0,0,0,0,0,0,0,0,0,0,0,0,0,0,0,0,0,0,0,0,0,0,0,0,0,0,0,0,0,0,0,0,0,0,0,0,988,987,985,985,986,0,0,0,0,0,0,808,801,0,0,778,0,771,765,763,760,757,755,753,751,747,745,743,741,0,0,0,0,671,668,664,661,659,657,655,654,653,651,650,649,649,649,649,649,648,648,648,647,647,646,644,643,642,641,640,638,636,634,633,631,629,627,626,624,623,622,621,620,620,620,621,621,622,624,626,628,630,633,635,639,642,645,647,649,655,660,662,666,667,669,670,671,672,672,672,672,672,671,672,672,671,670,669,669,668,668,667,667,666,665,665,663,662,0,0
0,0,0,0,0,0,0,0,0,0,0,0,0,0,0,0,0,0,0,0,0,0,0,0,0,0,0,0,0,0,0,0,0,0,0,0,0,0,0,0,0,0,0,0,0,0,0,0,0,0,0,0,0,0,0,0,0,0,0,0,0,0,0,0,0,0,0,0,0,0,0,0,0,0,0,0,0,0,0,0,0,0,0,0,0,0,0,0,0,0,0,0,0,0,0,0,0,0,0,0,0,0,0,0,0,0,0,0,0,0,0,0,0,0,0,0,0,0,0,0,0,0,0,0,0,0,0,0,0,0,0,0,0,0,0,0,0,0,0,0,0,0,0,0,0,0,0,0,0,0,0,0,0,0,0,0,0,0,0,0,0,0,0,0,0,0,0,0,0,0,0,0,0,0,0,0,0,0,0,0,0,0,0,0,0,0,0,0,0,0,0,0,0,0,0,0,0,0,991,989,987,985,983,982,983,0,0,0,0,0,0,809,801,0,0,779,774,771,767,764,762,759,757,756,754,749,746,744,743,0,0,0,0,0,667,663,661,659,657,656,654,653,651,650,649,649,649,648,648,647,647,647,646,645,644,643,643,641,640,640,638,636,634,632,630,628,626,624,623,622,621,621,619,619,619,620,621,622,623,625,628,629,633,635,640,642,645,647,649,654,659,662,665,667,667,669,669,669,670,669,670,669,669,669,669,669,668,668,667,667,667,666,666,666,665,664,663,662,0,0
0,0,0,0,0,0,0,0,0,0,0,0,0,0,0,0,0,0,0,0,0,0,0,0,0,0,0,0,0,0,0,0,0,0,0,0,0,0,0,0,0,0,0,0,0,0,0,0,0,0,0,0,0,0,0,0,0,0,0,0,0,0,0,0,0,0,0,0,0,0,0,0,0,0,0,0,0,0,0,0,0,0,0,0,0,0,0,0,0,0,0,0,0,0,0,0,0,0,0,0,0,0,0,0,0,0,0,0,0,0,0,0,0,0,0,0,0,0,0,0,0,0,0,0,0,0,0,0,0,0,0,0,0,0,0,0,0,0,0,0,0,0,0,0,0,0,0,0,0,0,0,0,0,0,0,0,0,0,0,0,0,0,0,0,0,0,0,0,0,0,0,0,0,0,0,0,0,0,0,0,0,0,0,0,0,0,0,0,0,0,0,0,0,0,0,0,0,991,990,988,984,982,980,979,980,0,0,0,0,0,0,0,0,0,0,0,773,772,768,765,764,761,760,757,755,751,747,745,744,0,0,0,0,669,667,663,661,659,657,656,654,653,651,650,650,649,649,648,647,646,646,646,645,644,644,643,642,641,640,639,637,636,634,632,629,627,625,624,622,622,621,620,619,619,619,620,621,622,623,626,628,630,633,636,640,641,644,647,651,655,659,662,665,666,666,667,668,668,668,668,668,668,667,667,667,667,667,667,667,666,666,666,665,665,664,663,662,661,0,0
0,0,0,0,0,0,0,0,0,0,0,0,0,0,0,0,0,0,0,0,0,0,0,0,0,0,0,0,0,0,0,0,0,0,0,0,0,0,0,0,0,0,0,0,0,0,0,0,0,0,0,0,0,0,0,0,0,0,0,0,0,0,0,0,0,0,0,0,0,0,0,0,0,0,0,0,0,0,0,0,0,0,0,0,0,0,0,0,0,0,0,0,0,0,0,0,0,0,0,0,0,0,0,0,0,0,0,0,0,0,0,0,0,0,0,0,0,0,0,0,0,0,0,0,0,0,0,0,0,0,0,0,0,0,0,0,0,0,0,0,0,0,0,0,0,0,0,0,0,0,0,0,0,0,0,0,0,0,0,0,0,0,0,0,0,0,0,0,0,0,0,0,0,0,0,0,0,0,0,0,0,0,0,0,0,0,0,0,0,0,0,0,0,0,0,0,0,991,989,986,981,978,976,976,976,976,0,0,0,0,0,0,0,791,787,0,775,772,770,768,765,763,761,759,756,753,748,746,744,0,0,0,672,669,667,664,661,659,657,656,654,653,651,650,650,649,649,648,647,647,646,646,644,643,643,642,642,641,640,639,637,636,634,632,629,627,624,623,622,621,620,619,619,619,619,620,621,622,624,627,629,631,634,636,640,641,643,647,649,654,658,661,663,664,665,666,666,666,666,0,0,0,0,0,662,662,663,664,664,664,664,664,663,663,662,662,661,660,0,0
0,0,0,0,0,0,0,0,0,0,0,0,0,0,0,0,0,0,0,0,0,0,0,0,0,0,0,0,0,0,0,0,0,0,0,0,0,0,0,0,0,0,0,0,0,0,0,0,0,0,0,0,0,0,0,0,0,0,0,0,0,0,0,0,0,0,0,0,0,0,0,0,0,0,0,0,0,0,0,0,0,0,0,0,0,0,0,0,0,0,0,0,0,0,0,0,0,0,0,0,0,0,0,0,0,0,0,0,0,0,0,0,0,0,0,0,0,0,0,0,0,0,0,0,0,0,0,0,0,0,0,0,0,0,0,0,0,0,0,0,0,0,0,0,0,0,0,0,0,0,0,0,0,0,0,0,0,0,0,0,0,0,0,0,0,0,0,0,0,0,0,0,0,0,0,0,0,0,0,0,0,0,0,0,0,0,0,0,0,0,0,0,0,0,0,0,0,989,987,984,978,976,974,973,974,0,0,0,0,0,0,0,795,791,785,781,776,774,772,770,767,764,763,759,756,754,750,0,0,0,0,0,672,669,666,663,661,659,657,655,654,653,651,650,650,649,649,648,647,646,645,644,644,643,642,642,642,641,640,639,637,635,634,631,628,626,623,622,621,619,618,618,617,617,618,619,620,621,623,627,629,630,634,635,639,640,642,647,649,654,658,659,661,662,662,662,662,662,661,660,657,654,0,0,0,0,0,0,660,661,661,662,662,662,662,661,660,660,0,0
0,0,0,0,0,0,0,0,0,0,0,0,0,0,0,0,0,0,0,0,0,0,0,0,0,0,0,0,0,0,0,0,0,0,0,0,0,0,0,0,0,0,0,0,0,0,0,0,0,0,0,0,0,0,0,0,0,0,0,0,0,0,0,0,0,0,0,0,0,0,0,0,0,0,0,0,0,0,0,0,0,0,0,0,0,0,0,0,0,0,0,0,0,0,0,0,0,0,0,0,0,0,0,0,0,0,0,0,0,0,0,0,0,0,0,0,0,0,0,0,0,0,0,0,0,0,0,0,0,0,0,0,0,0,0,0,0,0,0,0,0,0,0,0,0,0,0,0,0,0,0,0,0,0,0,0,0,0,0,0,0,0,0,0,0,0,0,0,0,0,0,0,0,0,0,0,0,0,0,0,3475,3486,0,0,0,0,0,0,0,0,0,0,0,0,0,0,0,987,985,981,975,973,973,972,971,0,0,0,0,0,0,0,795,791,785,781,778,775,773,772,769,765,763,760,756,753,750,0,0,0,0,0,0,669,666,663,661,659,656,655,654,653,651,650,649,649,648,648,647,646,645,644,643,643,642,641,640,640,639,638,636,634,633,630,628,625,623,621,620,618,618,617,617,617,618,619,620,621,623,627,629,632,634,636,638,640,642,647,649,653,656,657,659,659,659,660,659,657,654,653,652,650,649,0,0,646,644,0,0,0,0,660,660,661,660,660,659,659,0,0
0,0,0,0,0,0,0,0,0,0,0,0,0,0,0,0,0,0,0,0,0,0,0,0,0,0,0,0,0,0,0,0,0,0,0,0,0,0,0,0,0,0,0,0,0,0,0,0,0,0,0,0,0,0,0,0,0,0,0,0,0,0,0,0,0,0,0,0,0,0,0,0,0,0,0,0,0,0,0,0,0,0,0,0,0,0,0,0,0,0,0,0,0,0,0,0,0,0,0,0,0,0,0,0,0,0,0,0,0,0,0,0,0,0,0,0,0,0,0,0,0,0,0,0,0,0,0,0,0,0,0,0,0,0,0,0,0,0,0,0,0,0,0,0,0,0,0,0,0,0,0,0,0,0,0,0,0,0,0,0,0,0,0,0,0,0,0,0,0,0,0,0,0,0,0,0,0,0,3535,3510,3486,3486,3498,3510,0,0,0,0,0,0,0,0,0,0,0,0,0,986,983,979,974,973,971,970,969,970,0,0,0,0,0,799,796,792,788,784,781,778,776,773,770,766,764,760,756,753,750,0,0,0,0,0,673,668,666,663,661,659,656,654,653,653,651,650,649,649,648,648,647,646,644,643,643,642,642,640,640,639,639,638,636,634,632,630,627,624,622,621,619,618,616,616,615,615,617,618,620,621,624,627,629,632,635,636,639,641,644,647,648,651,654,656,656,657,656,656,655,654,651,649,0,0,0,642,641,640,640,640,640,644,0,653,658,659,659,659,658,659,0,0
0,0,0,0,0,0,0,0,0,0,0,0,0,0,0,0,0,0,0,0,0,0,0,0,0,0,0,0,0,0,0,0,0,0,0,0,0,0,0,0,0,0,0,0,0,0,0,0,0,0,0,0,0,0,0,0,0,0,0,0,0,0,0,0,0,0,0,0,0,0,0,0,0,0,0,0,0,0,0,0,0,0,0,0,0,0,0,0,0,0,0,0,0,0,0,0,0,0,0,0,0,0,0,0,0,0,0,0,0,0,0,0,0,0,0,0,0,0,0,0,0,0,0,0,0,0,0,0,0,0,0,0,0,0,0,0,0,0,0,0,0,0,0,0,0,0,0,0,0,0,0,0,0,0,0,0,0,0,0,0,0,0,0,0,0,0,0,0,0,0,0,0,0,0,0,0,3535,3522,3522,3510,3486,3486,3510,3535,0,0,0,0,0,0,0,0,0,0,0,0,0,985,982,979,975,973,971,969,968,0,0,0,0,0,0,0,798,793,790,785,782,781,777,774,771,766,764,759,756,754,0,0,0,0,0,675,673,668,665,662,660,659,656,654,654,653,651,650,649,648,648,647,646,644,644,642,642,642,641,640,640,639,638,637,635,633,631,629,626,623,622,620,618,617,616,615,615,615,616,618,621,622,624,627,629,632,635,637,639,641,644,647,647,650,653,654,654,654,654,654,652,649,648,645,642,0,639,637,637,636,635,635,636,0,0,649,655,656,657,658,657,657,0,0
0,0,0,0,0,0,0,0,0,0,0,0,0,0,0,0,0,0,0,0,0,0,0,0,0,0,0,0,0,0,0,0,0,0,0,0,0,0,0,0,0,0,0,0,0,0,0,0,0,0,0,0,0,0,0,0,0,0,0,0,0,0,0,0,0,0,0,0,0,0,0,0,0,0,0,0,0,0,0,0,0,0,0,0,0,0,0,0,0,0,0,0,0,0,0,0,0,0,0,0,0,0,0,0,0,0,0,0,0,0,0,0,0,0,0,0,0,0,0,0,0,0,0,0,0,0,0,0,0,0,0,0,0,0,0,0,0,0,0,0,0,0,0,0,0,0,0,0,0,0,0,0,0,0,0,0,0,0,0,0,0,0,0,0,0,0,0,0,0,0,0,0,0,3559,3535,3535,3522,3522,3522,3498,3486,3486,3510,0,0,0,0,0,0,0,0,0,0,0,0,0,989,986,981,977,974,972,970,968,967,0,0,0,0,0,0,804,801,795,791,788,784,782,779,775,771,767,764,760,756,754,0,0,0,678,0,675,672,667,665,662,660,659,656,654,653,652,651,649,648,647,647,646,646,644,643,642,642,641,640,640,639,638,637,636,634,632,630,628,624,622,621,618,617,616,615,615,615,615,616,619,621,622,624,627,629,633,636,639,640,642,644,646,647,648,649,652,653,653,652,651,649,647,646,643,640,638,636,635,635,634,634,633,633,633,0,0,654,655,656,656,656,655,0,0
0,0,0,0,0,0,0,0,0,0,0,0,0,0,0,0,0,0,0,0,0,0,0,0,0,0,0,0,0,0,0,0,0,0,0,0,0,0,0,0,0,0,0,0,0,0,0,0,0,0,0,0,0,0,0,0,0,0,0,0,0,0,0,0,0,0,0,0,0,0,0,0,0,0,0,0,0,0,0,0,0,0,0,0,0,0,0,0,0,0,0,0,0,0,0,0,0,0,0,0,0,0,0,0,0,0,0,0,0,0,0,0,0,0,0,0,0,0,0,0,0,0,0,0,0,0,0,0,0,0,0,0,0,0,0,0,0,0,0,0,0,0,0,0,0,0,0,0,0,0,0,0,0,0,0,0,0,0,0,0,0,0,0,0,0,0,0,0,0,0,3572,3559,3547,3547,3522,3535,3522,3510,3498,3498,3486,3498,3522,3522,0,0,0,0,0,0,0,0,0,0,0,992,989,985,979,976,973,971,969,967,965,0,0,0,0,0,0,806,801,798,793,791,787,784,781,776,772,767,764,760,756,754,0,0,0,679,677,675,671,667,664,661,660,658,656,654,653,652,651,649,648,647,646,645,645,644,643,642,641,640,640,640,639,638,636,635,634,631,629,627,623,622,620,618,616,616,615,614,615,615,617,619,621,622,627,629,630,633,635,638,640,641,643,645,645,647,647,648,649,649,648,647,646,644,642,641,638,636,634,634,633,631,629,629,628,627,626,0,0,0,655,655,655,653,0,0
0,0,0,0,0,0,0,0,0,0,0,0,0,0,0,0,0,0,0,0,0,0,0,0,0,0,0,0,0,0,0,0,0,0,0,0,0,0,0,0,0,0,0,0,0,0,0,0,0,0,0,0,0,0,0,0,0,0,0,0,0,0,0,0,0,0,0,0,0,0,0,0,0,0,0,0,0,0,0,0,0,0,0,0,0,0,0,0,0,0,0,0,0,0,0,0,0,0,0,0,0,0,0,0,0,0,0,0,0,0,0,0,0,0,0,0,0,0,0,0,0,0,0,0,0,0,0,0,0,0,0,0,0,0,0,0,0,0,0,0,0,0,0,0,0,0,0,0,0,0,0,0,0,0,0,0,0,0,0,0,0,0,0,0,0,0,0,0,0,0,3559,3547,3547,3547,3522,3522,3510,3498,3486,3486,3486,3498,3522,3522,0,0,0,0,0,0,0,0,0,0,0,0,987,984,977,975,972,969,967,965,964,965,0,0,0,0,812,808,802,800,795,793,789,785,782,778,773,767,764,761,758,0,0,0,0,679,677,674,670,667,663,661,659,657,656,654,653,652,651,649,647,646,645,644,644,643,642,641,640,640,639,639,639,637,636,634,633,630,629,626,623,621,619,617,616,615,614,615,615,616,617,619,621,622,627,629,631,633,635,638,640,641,642,643,644,645,646,646,647,647,645,643,642,641,640,638,636,634,633,631,630,628,627,626,623,622,622,621,621,0,0,0,0,650,0,0
0,0,0,0,0,0,0,0,0,0,0,0,0,0,0,0,0,0,0,0,0,0,0,0,0,0,0,0,0,0,0,0,0,0,0,0,0,0,0,0,0,0,0,0,0,0,0,0,0,0,0,0,0,0,0,0,0,0,0,0,0,0,0,0,0,0,0,0,0,0,0,0,0,0,0,0,0,0,0,0,0,0,0,0,0,0,0,0,0,0,0,0,0,0,0,0,0,0,0,0,0,0,0,0,0,0,0,0,0,0,0,0,0,0,0,0,0,0,0,0,0,0,0,0,0,0,0,0,0,0,0,0,0,0,0,0,0,0,0,0,0,0,0,0,0,0,0,0,0,0,0,0,0,0,0,0,0,0,0,0,0,0,0,0,0,0,0,0,3547,3547,3547,3535,3547,3547,3535,3535,3510,3486,3475,3475,3486,3510,3522,0,0,0,0,0,0,0,0,0,0,0,0,0,985,980,974,973,970,968,966,965,964,965,0,0,0,0,815,811,804,801,796,794,791,787,783,779,772,766,763,761,759,757,0,0,0,678,676,673,669,667,663,661,659,657,656,655,653,652,651,649,648,646,645,644,644,643,642,641,640,640,639,638,638,636,635,634,633,630,629,624,622,619,617,616,615,614,614,614,615,616,617,619,621,622,627,629,631,633,635,637,638,640,641,642,642,642,642,642,641,641,640,639,639,638,637,635,634,632,630,629,627,625,623,622,620,619,619,619,619,618,0,0,0,0,0,0
0,0,0,0,0,0,0,0,0,0,0,0,0,0,0,0,0,0,0,0,0,0,0,0,0,0,0,0,0,0,0,0,0,0,0,0,0,0,0,0,0,0,0,0,0,0,0,0,0,0,0,0,0,0,0,0,0,0,0,0,0,0,0,0,0,0,0,0,0,0,0,0,0,0,0,0,0,0,0,0,0,0,0,0,0,0,0,0,0,0,0,0,0,0,0,0,0,0,0,0,0,0,0,0,0,0,0,0,0,0,0,0,0,0,0,0,0,0,0,0,0,0,0,0,0,0,0,0,0,0,0,0,0,0,0,0,0,0,0,0,0,0,0,0,0,0,0,0,0,0,0,0,0,0,0,0,0,0,0,0,0,0,0,0,0,0,0,0,3572,3559,3547,3535,3547,3547,3535,3547,3510,3463,3451,3451,3463,3510,3522,3510,0,0,0,0,0,0,0,0,0,0,0,0,981,977,973,971,969,966,964,963,962,963,0,0,0,0,0,812,805,801,797,795,791,786,782,0,771,765,762,760,759,0,0,0,680,677,675,672,669,666,663,660,658,657,656,654,653,652,651,649,647,646,644,644,643,642,642,641,640,639,638,638,637,636,634,634,631,629,627,623,621,618,617,616,615,613,613,614,615,616,617,619,622,624,627,629,631,633,634,635,637,638,639,640,641,641,641,640,640,639,637,636,636,635,634,632,631,629,628,627,625,622,622,619,617,616,616,616,617,616,615,0,611,0,0,0
0,0,0,0,0,0,0,0,0,0,0,0,0,0,0,0,0,0,0,0,0,0,0,0,0,0,0,0,0,0,0,0,0,0,0,0,0,0,0,0,0,0,0,0,0,0,0,0,0,0,0,0,0,0,0,0,0,0,0,0,0,0,0,0,0,0,0,0,0,0,0,0,0,0,0,0,0,0,0,0,0,0,0,0,0,0,0,0,0,0,0,0,0,0,0,0,0,0,0,0,0,0,0,0,0,0,0,0,0,0,0,0,0,0,0,0,0,0,0,0,0,0,0,0,0,0,0,0,0,0,0,0,0,0,0,0,0,0,0,0,0,0,0,0,0,0,0,0,0,0,0,0,0,0,0,0,0,0,0,0,0,0,0,0,0,0,0,3584,3584,3572,3547,3535,3535,3535,3535,3535,3510,3463,3451,3451,3475,3510,3510,0,0,0,0,0,0,0,0,0,0,0,0,0,976,974,972,970,967,965,964,962,962,962,0,0,0,0,817,813,807,803,798,795,792,786,781,775,770,764,761,760,760,0,0,0,681,678,674,671,668,666,663,661,658,657,656,654,653,651,651,649,647,646,645,644,643,642,641,640,639,638,638,637,636,634,633,632,629,628,625,622,620,618,616,615,614,613,613,613,615,616,618,621,622,624,626,628,630,631,633,634,635,636,637,638,638,638,638,638,638,637,636,635,634,633,630,629,627,626,624,623,622,621,618,616,616,615,614,613,613,613,612,612,611,609,0,0
0,0,0,0,0,0,0,0,0,0,0,0,0,0,0,0,0,0,0,0,0,0,0,0,0,0,0,0,0,0,0,0,0,0,0,0,0,0,0,0,0,0,0,0,0,0,0,0,0,0,0,0,0,0,0,0,0,0,0,0,0,0,0,0,0,0,0,0,0,0,0,0,0,0,0,0,0,0,0,0,0,0,0,0,0,0,0,0,0,0,0,0,0,0,0,0,0,0,0,0,0,0,0,0,0,0,0,0,0,0,0,0,0,0,0,0,0,0,0,0,0,0,0,0,0,0,0,0,0,0,0,0,0,0,0,0,0,0,0,0,0,0,0,0,0,0,0,0,0,0,0,0,0,0,0,0,0,0,0,0,0,0,0,0,0,0,0,3572,3572,3559,3547,3522,3522,3535,3535,3535,3522,3475,3463,3463,3475,3522,3522,0,0,0,0,0,0,0,0,0,0,0,0,0,973,972,969,967,965,964,962,962,961,0,0,0,0,0,0,813,808,803,800,795,792,786,780,772,766,763,760,758,759,0,0,0,681,677,674,670,668,666,663,660,659,657,655,654,652,651,650,649,648,647,646,644,643,642,641,639,639,638,637,636,635,634,633,631,629,627,624,621,618,617,616,614,613,613,613,614,615,616,618,621,622,624,626,627,628,629,631,633,634,634,634,634,634,634,634,635,635,634,632,631,629,628,625,622,622,622,621,619,617,617,616,615,614,612,611,611,610,611,610,610,609,607,0,0
0,0,0,0,0,0,0,0,0,0,0,0,0,0,0,0,0,0,0,0,0,0,0,0,0,0,0,0,0,0,0,0,0,0,0,0,0,0,0,0,0,0,0,0,0,0,0,0,0,0,0,0,0,0,0,0,0,0,0,0,0,0,0,0,0,0,0,0,0,0,0,0,0,0,0,0,0,0,0,0,0,0,0,0,0,0,0,0,0,0,0,0,0,0,0,0,0,0,0,0,0,0,0,0,0,0,0,0,0,0,0,0,0,0,0,0,0,0,0,0,0,0,0,0,0,0,0,0,0,0,0,0,0,0,0,0,0,0,0,0,0,0,0,0,0,0,0,0,0,0,0,0,0,0,0,0,0,0,0,0,0,0,0,0,0,0,0,3597,3572,3572,3559,3535,3522,3535,3535,3522,3522,3486,3475,3475,3486,3522,3535,0,0,0,0,0,0,0,0,0,0,0,0,974,972,971,968,966,963,962,960,959,958,958,0,0,0,0,0,812,808,804,801,795,790,784,775,768,765,763,760,758,759,0,0,682,681,677,674,670,668,666,663,661,659,657,655,653,652,651,649,649,648,647,646,644,643,642,640,639,638,637,636,636,635,634,632,629,628,625,623,620,618,616,615,614,612,612,613,613,615,616,619,621,622,623,624,626,627,627,629,630,631,631,632,631,631,0,0,626,623,623,0,625,0,622,621,620,618,617,616,615,612,611,611,610,610,609,609,609,608,608,607,606,606,605,0,0
0,0,0,0,0,0,0,0,0,0,0,0,0,0,0,0,0,0,0,0,0,0,0,0,0,0,0,0,0,0,0,0,0,0,0,0,0,0,0,0,0,0,0,0,0,0,0,0,0,0,0,0,0,0,0,0,0,0,0,0,0,0,0,0,0,0,0,0,0,0,0,0,0,0,0,0,0,0,0,0,0,0,0,0,0,0,0,0,0,0,0,0,0,0,0,0,0,0,0,0,0,0,0,0,0,0,0,0,0,0,0,0,0,0,0,0,0,0,0,0,0,0,0,0,0,0,0,0,0,0,0,0,0,0,0,0,0,0,0,0,0,0,0,0,0,0,0,0,0,0,0,0,0,0,0,0,0,0,0,0,0,0,0,0,0,0,3584,3584,3572,3559,3547,3535,3522,3535,3535,3510,3498,3486,3475,3486,3510,3535,3535,0,0,0,0,0,0,0,0,0,0,0,0,974,972,971,966,964,962,960,957,956,956,955,0,0,0,0,0,812,808,803,801,795,0,0,773,767,765,763,761,0,0,0,686,682,680,676,673,670,668,666,663,661,659,657,655,654,652,651,649,648,647,647,646,644,643,641,640,638,638,637,636,636,634,633,631,629,627,623,622,619,617,615,613,612,611,612,612,614,615,616,618,619,621,622,623,623,624,624,624,627,628,628,628,626,626,0,0,0,621,620,620,620,620,619,617,616,616,613,612,610,609,608,607,607,606,605,605,605,604,605,604,604,604,604,0,0
0,0,0,0,0,0,0,0,0,0,0,0,0,0,0,0,0,0,0,0,0,0,0,0,0,0,0,0,0,0,0,0,0,0,0,0,0,0,0,0,0,0,0,0,0,0,0,0,0,0,0,0,0,0,0,0,0,0,0,0,0,0,0,0,0,0,0,0,0,0,0,0,0,0,0,0,0,0,0,0,0,0,0,0,0,0,0,0,0,0,0,0,0,0,0,0,0,0,0,0,0,0,0,0,0,0,0,0,0,0,0,0,0,0,0,0,0,0,0,0,0,0,0,0,0,0,0,0,0,0,0,0,0,0,0,0,0,0,0,0,0,0,0,0,0,1388,1384,0,0,0,0,0,1449,0,0,0,0,0,0,0,0,0,0,0,0,0,3597,3597,3572,3547,3547,3535,3535,3535,3522,3498,3486,3475,3475,3486,3522,3547,3572,0,0,0,0,0,0,0,0,0,0,0,0,973,971,970,966,962,960,957,955,954,954,953,949,0,0,0,0,812,807,803,799,794,0,778,774,767,765,764,763,0,0,0,0,682,680,676,673,670,668,666,662,661,659,657,656,654,653,651,649,648,647,646,645,644,643,642,640,638,638,637,636,635,634,632,630,628,626,622,621,618,616,615,612,612,611,611,612,614,615,616,617,618,618,619,620,621,621,620,619,0,0,0,0,0,617,0,0,0,618,617,616,0,616,616,613,612,611,610,609,608,606,605,604,604,604,603,603,603,602,603,603,602,602,602,0,0
0,0,0,0,0,0,0,0,0,0,0,0,0,0,0,0,0,0,0,0,0,0,0,0,0,0,0,0,0,0,0,0,0,0,0,0,0,0,0,0,0,0,0,0,0,0,0,0,0,0,0,0,0,0,0,0,0,0,0,0,0,0,0,0,0,0,0,0,0,0,0,0,0,0,0,0,0,0,0,0,0,0,0,0,0,0,0,0,0,0,0,0,0,0,0,0,0,0,0,0,0,0,0,0,0,0,0,0,0,0,0,0,0,0,0,0,0,0,0,0,0,0,0,0,0,0,0,0,0,0,0,0,0,0,0,0,0,0,0,0,0,0,0,1378,1380,1380,1382,1388,1397,0,1430,1441,1457,1472,0,0,0,0,0,0,0,0,0,0,0,3635,3610,3610,3572,3559,3559,3547,3547,3547,3522,3498,3486,3475,3475,3498,3522,3535,3559,0,0,0,0,0,0,0,0,0,0,0,0,975,971,970,964,962,958,955,953,953,953,951,948,0,0,0,813,811,807,802,798,0,0,776,773,769,765,764,0,0,0,0,684,682,679,676,673,670,668,666,662,661,659,657,656,654,653,651,649,648,647,645,644,643,642,641,640,639,638,637,636,634,633,631,629,627,624,622,620,618,616,614,612,611,611,611,612,613,615,615,616,616,616,617,617,616,616,616,615,0,0,0,0,0,611,609,0,0,0,0,0,0,609,608,608,0,0,604,605,605,604,603,602,602,602,602,601,600,600,600,600,600,599,599,0,0
0,0,0,0,0,0,0,0,0,0,0,0,0,0,0,0,0,0,0,0,0,0,0,0,0,0,0,0,0,0,0,0,0,0,0,0,0,0,0,0,0,0,0,0,0,0,0,0,0,0,0,0,0,0,0,0,0,0,0,0,0,0,0,0,0,0,0,0,0,0,0,0,0,0,0,0,0,0,0,0,0,0,0,0,0,0,0,0,0,0,0,0,0,0,0,0,0,0,0,0,0,0,0,0,0,0,0,0,0,0,0,0,0,0,0,0,0,0,0,0,0,0,0,0,0,0,0,0,0,0,0,0,0,0,0,0,0,0,0,0,0,0,0,1373,1375,1376,1380,1388,1397,1413,1430,1441,1459,1476,0,0,0,0,0,0,0,0,0,0,3661,3661,3635,3610,3584,3559,3559,3547,3547,3547,3522,3486,3475,3463,3475,3486,3510,3535,3559,0,0,0,0,0,0,0,0,0,0,0,0,975,972,970,963,961,958,956,954,953,953,950,0,0,0,0,815,0,0,801,796,0,781,776,773,770,766,0,0,0,0,0,0,682,680,676,673,669,668,665,662,661,659,657,656,654,653,651,649,648,647,646,644,643,642,641,640,639,637,636,635,634,631,630,628,626,623,621,618,616,615,612,611,610,610,611,611,612,613,614,615,615,615,615,614,612,611,611,611,610,609,609,609,608,608,606,605,606,606,605,605,605,605,604,604,603,602,601,600,599,598,598,598,599,599,599,599,599,599,598,598,598,598,598,0,0
0,0,0,0,0,0,0,0,0,0,0,0,0,0,0,0,0,0,0,0,0,0,0,0,0,0,0,0,0,0,0,0,0,0,0,0,0,0,0,0,0,0,0,0,0,0,0,0,0,0,0,0,0,0,0,0,0,0,0,0,0,0,0,0,0,0,0,0,0,0,0,0,0,0,0,0,0,0,0,0,0,0,0,0,0,0,0,0,0,0,0,0,0,0,0,0,0,0,0,0,0,0,0,0,0,0,0,0,0,0,0,0,0,0,0,0,0,0,0,0,0,0,0,0,0,0,0,0,0,0,0,0,0,0,0,0,0,0,0,0,1364,1364,1362,1365,1369,1373,1378,1390,1399,1420,1434,1449,1465,0,0,0,0,0,0,0,0,0,0,0,3661,3661,3622,3597,3584,3559,3559,3559,3547,3535,3510,3486,3475,3463,3475,3486,3510,3547,3559,0,0,0,0,0,0,0,0,0,0,0,0,974,971,968,963,961,957,955,953,952,950,949,0,0,0,0,0,0,0,799,793,784,780,776,773,770,767,765,0,0,0,0,684,682,679,675,673,669,667,665,662,661,659,657,655,654,652,651,649,648,647,646,644,643,642,641,640,638,637,636,635,634,631,629,627,625,623,620,617,616,613,611,610,609,610,610,611,611,612,612,612,612,612,611,611,610,609,609,608,607,607,606,606,605,605,604,604,603,603,603,602,602,602,602,602,600,599,599,598,598,597,596,595,596,596,598,597,597,596,595,595,595,596,596,0,0
0,0,0,0,0,0,0,0,0,0,0,0,0,0,0,0,0,0,0,0,0,0,0,0,0,0,0,0,0,0,0,0,0,0,0,0,0,0,0,0,0,0,0,0,0,0,0,0,0,0,0,0,0,0,0,0,0,0,0,0,0,0,0,0,0,0,0,0,0,0,0,0,0,0,0,0,0,0,0,0,0,0,0,0,0,0,0,0,0,0,0,0,0,0,0,0,0,0,0,0,0,0,0,0,0,0,0,0,0,0,0,0,0,0,0,0,0,0,0,0,0,0,0,0,0,0,0,0,0,0,0,0,0,0,0,0,1347,1346,1347,1346,1351,1354,1354,1362,1367,1373,1378,1388,1399,1424,1445,1459,1467,0,0,0,0,0,0,0,0,0,0,0,3661,3661,3622,3597,3584,3559,3559,3559,3547,3522,3510,3498,3486,3486,3486,3486,3510,3547,3547,0,0,0,0,0,0,0,0,0,0,0,0,973,971,968,962,961,957,954,953,951,949,949,0,0,0,0,0,0,0,796,791,784,781,776,773,769,767,0,0,0,0,0,686,683,680,675,673,669,667,665,662,661,657,656,655,654,652,651,649,648,647,646,644,642,642,640,639,638,637,636,635,634,630,628,626,624,622,619,617,615,613,611,610,609,609,609,610,610,610,610,610,610,610,609,608,606,605,605,605,605,605,604,604,603,603,603,602,601,601,600,600,600,600,599,599,598,597,597,596,596,595,595,594,594,594,595,594,594,593,593,593,594,594,595,0,0
0,0,0,0,0,0,0,0,0,0,0,0,0,0,0,0,0,0,0,0,0,0,0,0,0,866,867,868,0,0,0,0,0,0,0,0,0,0,0,0,0,873,875,870,0,0,0,0,0,0,0,0,0,0,0,0,0,0,0,0,0,0,0,0,0,0,0,0,0,0,0,0,0,0,0,0,0,0,0,0,0,0,0,0,0,0,0,0,0,0,0,0,0,0,0,0,0,0,0,0,0,0,0,0,0,0,0,0,0,0,0,0,0,0,0,0,0,0,0,0,0,0,0,0,0,0,0,0,0,0,0,0,1358,1360,1356,1354,1351,1347,1349,1347,1349,1353,1354,1360,1367,1375,1382,1390,1399,1441,1457,1463,1472,0,0,0,0,0,0,0,0,0,0,0,3635,3622,3610,3597,3572,3559,3547,3547,3535,3522,3510,3498,3486,3475,3475,3475,3498,3547,3559,0,0,0,0,0,0,0,0,0,0,0,0,973,970,966,962,960,956,954,952,950,948,948,948,0,0,0,0,0,0,0,788,784,781,776,772,769,767,0,0,695,0,0,686,683,680,675,673,669,667,665,662,661,657,656,655,654,652,651,649,648,647,645,644,642,641,640,639,638,636,636,635,633,630,628,626,624,622,618,616,614,613,611,610,609,609,608,608,608,608,608,608,608,607,606,605,605,604,603,603,602,603,603,603,602,601,601,600,599,599,599,598,598,597,596,595,595,594,594,594,594,593,593,593,592,592,593,592,592,593,593,593,593,593,593,0,0
0,0,0,0,0,0,0,0,0,0,0,0,0,0,0,0,0,0,0,0,0,870,869,868,867,868,868,870,870,871,870,870,869,868,869,870,870,874,0,876,876,875,876,876,876,0,882,883,0,0,0,0,0,0,0,0,0,0,0,0,0,0,0,0,0,0,0,0,0,0,0,0,0,0,0,0,0,0,0,0,0,0,0,0,0,0,0,0,0,0,0,0,0,0,0,0,0,0,0,0,0,0,0,0,0,0,0,0,0,0,0,0,0,0,0,0,0,0,0,0,0,0,0,0,0,0,0,0,0,0,0,0,1353,1353,1351,1353,1351,1349,1351,1347,1351,1353,1354,1364,1371,1378,1386,1393,1405,1441,1459,1463,1478,0,0,0,0,0,0,0,0,0,0,0,3635,3622,3597,3584,3572,3547,3547,3547,3535,3510,3510,3486,3475,3463,3463,3463,3498,3559,3572,0,0,0,0,0,0,0,0,0,0,0,0,970,967,964,961,959,954,952,949,948,948,948,947,0,0,0,0,0,0,0,785,784,781,775,772,768,768,0,0,694,690,688,685,682,678,674,673,669,668,664,662,661,658,656,654,654,652,651,649,648,646,645,644,642,641,640,638,637,636,635,634,633,629,627,624,623,621,617,615,613,612,611,610,609,608,607,607,606,605,605,605,605,605,604,603,603,602,602,601,601,601,601,601,600,600,599,599,598,598,598,597,597,596,594,593,593,592,592,593,593,592,592,592,591,591,592,592,591,591,592,592,592,592,592,0,0
0,0,0,0,0,0,0,0,0,0,0,0,0,0,0,0,0,0,0,0,0,0,870,0,868,870,871,874,876,876,875,873,872,872,876,878,879,879,878,877,878,879,882,882,882,883,885,886,889,888,886,888,0,0,0,0,0,0,0,0,0,0,0,0,0,0,0,0,0,0,0,0,0,0,0,0,0,0,0,0,0,0,0,0,0,0,0,0,0,0,0,0,0,0,0,0,0,0,0,0,0,0,0,0,0,0,0,0,0,0,0,0,0,0,0,0,0,0,0,0,0,0,0,0,0,0,0,0,0,0,1354,1351,1351,1351,1351,1351,1351,1351,1351,1349,1351,1354,1358,1367,1375,1382,1391,1399,0,1443,1461,0,0,0,0,0,0,0,0,0,0,0,0,0,3622,3610,3584,3584,3559,3547,3535,3510,3510,3498,3486,3463,3451,3451,3439,3463,3486,3547,3559,0,0,0,0,0,0,0,0,0,0,0,0,967,967,963,960,957,953,952,949,948,948,948,948,952,0,0,0,0,0,0,0,782,780,776,772,770,769,0,0,0,691,688,684,681,678,675,673,670,668,664,662,661,659,656,654,654,652,650,649,647,646,644,643,642,641,640,638,636,635,634,633,631,629,627,624,622,621,617,615,613,612,611,610,609,608,607,606,605,605,604,604,604,604,603,602,602,601,600,600,599,599,599,600,599,599,598,597,597,596,596,595,595,594,593,593,592,592,591,591,591,590,591,591,590,590,590,590,590,590,590,590,591,591,590,0,0
0,0,0,0,0,0,0,0,0,0,0,0,0,0,0,0,0,0,0,0,0,0,0,0,0,0,0,877,879,879,0,0,0,0,0,0,892,893,895,899,0,893,889,889,888,889,890,890,892,892,893,896,900,904,905,907,908,0,0,0,0,0,0,0,0,0,0,0,0,0,0,0,0,0,0,0,0,0,0,0,0,0,0,0,0,0,0,0,0,0,0,0,0,0,0,0,0,0,0,0,0,0,0,0,0,0,0,0,0,0,0,0,0,0,0,0,0,0,0,0,0,0,0,0,0,0,0,0,0,0,1358,1351,1349,1351,1349,1351,1353,1353,1354,1353,1356,1360,1365,1373,1380,1391,1397,1407,1436,1449,0,0,0,0,0,0,0,0,0,0,0,0,3610,3622,3622,3597,3572,3559,3547,3535,3522,3498,3498,3486,3475,3463,3439,3439,3439,3463,3510,3559,3572,0,0,0,0,0,0,0,0,0,0,0,0,0,964,962,959,955,953,951,949,948,947,947,945,0,0,0,0,0,0,0,0,782,779,776,774,771,0,0,0,695,691,688,683,681,678,676,674,671,668,664,662,661,659,657,654,653,651,649,648,647,646,644,643,641,641,640,638,636,634,634,632,630,628,626,624,622,619,616,614,612,611,610,610,609,608,607,605,605,604,604,603,603,602,602,601,601,600,600,599,599,599,599,599,598,598,597,596,595,594,594,593,593,593,592,592,592,591,591,590,590,590,589,589,589,589,589,589,589,589,589,590,590,590,590,0,0
0,0,0,0,0,0,0,0,0,0,0,0,0,0,0,0,0,0,0,0,0,0,0,0,0,0,0,0,0,886,0,0,0,0,896,895,897,900,903,903,902,900,895,893,891,0,0,893,896,898,900,903,905,907,908,910,913,913,913,914,0,0,919,922,0,0,0,0,0,0,0,0,0,0,0,0,0,0,0,0,0,0,0,0,0,0,0,0,0,0,0,0,0,0,0,0,0,0,0,0,0,0,0,0,0,0,0,0,0,0,0,0,0,0,0,0,0,0,0,0,0,0,0,0,0,0,0,0,0,1353,1354,1349,1347,1347,1346,1349,1351,1353,1354,1354,1358,1365,1369,1376,1386,1395,1401,1420,1436,1445,0,0,0,0,0,0,0,0,0,0,0,0,3622,3635,3622,3597,3572,3559,3547,3522,3510,3498,3486,3475,3463,3439,3439,3439,3439,3475,3510,3547,3559,3535,0,0,0,0,0,0,0,0,0,0,0,0,962,960,958,954,952,949,947,946,945,945,945,0,0,0,0,0,0,0,0,781,778,776,775,0,0,0,0,695,690,688,683,681,677,676,674,671,668,665,662,661,659,657,655,653,650,649,648,647,646,644,642,641,640,639,636,635,634,633,631,629,627,626,623,622,619,616,614,612,611,610,609,609,608,606,605,604,603,603,602,601,601,601,600,600,600,600,599,599,598,598,598,597,597,596,595,594,593,593,592,592,591,591,591,591,590,590,590,590,589,589,588,588,588,588,589,589,589,589,589,589,590,590,0,0
0,0,0,0,0,0,0,0,0,0,0,0,0,0,0,0,0,0,0,0,0,0,0,0,0,0,0,0,0,0,0,0,901,900,900,900,900,902,904,904,904,904,904,905,908,911,0,0,0,0,906,908,908,912,914,914,917,917,917,922,925,922,924,929,933,934,935,935,0,0,0,0,0,0,0,0,0,0,0,0,0,0,0,0,0,0,0,0,0,0,0,0,0,0,0,0,0,0,0,0,0,0,0,0,0,0,0,0,0,0,0,0,0,0,0,0,0,0,0,0,0,0,0,0,0,0,0,0,0,1354,1356,1351,1347,1346,1346,1347,1349,1353,1354,1356,1360,1365,1371,1378,1390,1397,1405,1428,1438,1453,0,0,0,0,0,0,0,0,0,0,0,3648,3635,3635,3622,3584,3559,3535,3522,3510,3498,3486,3475,3475,3451,3428,3416,3428,3439,3475,3498,3535,3547,3547,0,0,0,0,0,0,0,0,0,0,0,0,0,958,956,953,951,948,946,945,944,944,943,0,0,0,0,0,0,0,784,782,780,778,778,0,0,0,0,695,690,687,683,681,677,676,674,671,668,666,663,661,660,657,655,653,650,649,648,647,646,643,642,640,640,639,636,634,633,632,630,628,627,625,623,621,618,616,613,612,611,610,609,608,607,606,605,604,603,602,601,600,600,600,601,600,599,599,598,598,598,597,597,596,596,595,594,593,593,592,591,591,590,590,591,590,590,590,589,589,589,588,588,587,587,587,588,588,588,589,589,589,589,590,0,0
0,0,0,0,0,0,0,0,0,0,0,0,0,0,0,0,0,0,0,0,0,0,0,0,0,0,0,0,0,0,0,0,0,902,902,901,900,903,904,904,906,907,908,912,915,917,0,0,0,0,0,0,0,0,915,914,0,0,0,940,936,0,933,935,937,939,940,940,941,0,0,0,948,0,0,0,0,0,0,0,0,0,0,0,0,0,0,0,0,0,0,0,0,0,0,0,0,0,0,0,0,0,0,0,0,0,0,0,0,0,0,0,0,0,0,0,0,0,0,0,0,0,0,0,0,0,0,0,0,1354,1354,1351,1347,1344,1344,1344,1347,1351,1353,1358,1362,1367,1373,1380,1391,1399,1407,1428,1436,1453,0,0,0,0,0,0,0,0,0,0,0,3661,3622,3622,3610,3584,3559,3522,3522,3510,3510,3510,3486,3475,3451,3439,3416,3428,3439,3463,3498,3522,3535,3535,0,0,0,0,0,0,0,0,0,0,0,0,0,958,955,953,949,946,944,943,942,942,941,939,0,0,0,0,0,0,785,782,781,779,0,0,0,0,697,695,690,687,683,681,677,675,674,672,668,666,663,661,659,657,655,654,651,649,649,647,646,643,642,640,640,638,636,634,633,631,629,627,626,624,622,620,616,615,613,612,611,610,609,608,607,605,605,604,603,602,601,600,600,600,600,599,599,599,598,598,597,597,596,595,595,594,593,592,592,591,590,589,589,589,590,589,589,589,589,588,588,588,587,587,587,587,587,588,588,589,589,589,589,589,0,0
0,0,0,0,0,0,0,0,0,0,0,0,0,0,0,0,0,0,0,0,0,0,0,0,0,0,0,0,0,0,0,0,0,903,902,902,900,902,904,904,906,908,910,913,915,918,0,0,0,0,0,0,0,0,0,0,0,0,0,0,0,0,0,940,942,942,944,945,946,954,953,954,954,0,0,0,0,0,0,0,0,0,0,0,0,0,0,0,0,0,0,0,0,0,0,0,0,0,0,0,0,0,0,0,0,0,1455,0,0,0,0,0,0,0,0,0,0,0,0,0,0,0,0,0,0,0,0,0,1364,1354,1356,1353,1349,1347,1344,1344,1347,1351,1353,1358,1362,1369,1373,1380,1393,1401,1413,1430,1438,1455,0,0,0,0,0,0,0,0,0,0,0,3661,3622,3610,3597,3572,3547,3510,3510,3510,3522,3522,3498,3486,3451,3439,3428,3439,3439,3475,3510,3510,3522,3522,0,0,0,0,0,0,0,0,0,0,0,0,0,957,955,951,948,945,943,940,940,940,940,938,0,0,0,0,0,788,785,783,782,780,0,0,0,702,697,694,690,686,682,680,677,674,673,671,669,667,664,662,660,658,655,654,651,649,649,647,646,643,641,640,639,638,635,634,632,631,629,627,625,624,622,619,616,615,613,612,611,610,609,608,607,605,604,604,603,602,601,600,600,599,599,599,598,598,597,597,597,596,595,594,593,593,592,592,591,590,589,589,588,588,589,588,588,588,588,588,587,587,587,586,587,587,587,588,588,588,589,589,589,590,0,0
0,0,0,0,0,0,0,0,0,0,0,0,0,0,0,0,0,0,0,0,0,0,0,0,0,0,0,0,0,0,0,0,0,0,904,903,900,902,904,906,908,909,912,914,915,917,0,0,0,0,0,0,0,0,0,0,0,0,0,0,0,0,0,0,0,0,0,0,0,958,0,0,0,0,0,0,0,0,0,0,0,0,0,0,0,0,0,0,0,0,0,0,0,0,0,0,0,0,0,0,0,0,0,0,1434,1438,1451,1459,1465,0,0,0,0,0,0,0,0,0,0,0,0,0,0,0,0,0,0,0,1364,1356,1356,1354,1353,1351,1346,1344,1346,1349,1353,1358,1364,1369,1375,1384,1397,1403,1418,1432,1447,1459,0,0,0,0,0,0,0,0,0,0,0,3635,3610,3597,3584,3559,3522,3510,3498,3510,3522,3522,3510,3486,3451,3439,3428,3428,3439,3463,3498,3498,3522,3535,0,0,0,0,0,0,0,0,0,0,0,0,0,956,954,950,947,944,941,939,939,939,939,937,0,0,0,0,0,0,0,784,783,0,0,0,0,700,697,694,690,687,682,680,677,674,673,670,669,667,664,662,660,657,655,654,652,650,648,646,644,642,641,640,640,638,635,633,632,630,629,627,624,623,621,619,616,615,614,613,612,611,609,608,607,605,604,604,603,602,602,601,600,600,600,599,598,598,597,597,596,596,595,594,593,592,592,591,590,589,589,588,588,588,588,588,588,588,588,587,587,587,587,587,587,587,587,588,588,589,589,589,590,591,0,0
0,0,0,0,0,0,0,0,0,0,0,0,0,0,0,0,0,0,0,0,0,0,0,0,0,0,0,0,0,0,0,0,0,0,906,904,900,902,903,906,908,909,913,913,914,916,0,0,0,0,0,0,0,0,0,0,0,0,0,0,0,0,0,0,0,0,0,0,0,0,0,0,0,0,0,0,0,0,0,0,0,0,0,0,0,0,0,0,0,0,0,0,0,0,0,0,0,0,0,1409,1413,1418,1422,1428,1432,1436,1445,1455,1463,1463,0,0,0,0,0,0,0,0,0,0,0,0,0,0,0,0,0,0,1360,1356,1356,1354,1353,1351,1347,1344,1346,1347,1351,1358,1365,1371,1376,1386,1399,1405,1422,1434,1463,1474,0,0,0,0,0,0,0,0,0,0,0,3622,3610,3584,3572,3547,3522,3510,3498,3510,3535,3522,3510,3486,3439,3428,3428,3428,3439,3463,3486,3498,3535,3547,0,0,0,0,0,0,0,0,0,0,0,0,0,956,953,948,946,943,940,939,939,938,937,937,0,0,0,0,795,0,0,784,0,0,0,0,0,700,697,693,689,687,683,681,678,675,673,670,669,667,665,662,660,657,655,654,652,650,648,646,644,642,641,640,639,637,635,634,632,630,629,627,624,622,620,618,617,615,614,613,613,611,609,609,607,606,605,604,604,603,602,601,601,600,600,599,598,598,597,597,597,595,595,594,593,592,591,590,589,589,588,588,588,587,587,587,587,587,587,587,587,587,587,586,587,588,588,588,589,589,590,590,591,591,0,0
0,0,0,0,0,0,0,0,0,0,0,0,0,0,0,0,0,0,0,0,0,0,0,0,0,0,0,0,0,0,0,0,0,0,906,905,903,903,904,905,907,909,911,914,914,915,0,0,0,0,0,0,0,0,0,0,0,0,0,0,0,0,0,0,0,0,0,0,0,0,0,0,0,0,0,0,0,0,0,0,0,0,0,0,0,0,0,0,0,0,0,0,0,0,1384,1388,1393,1399,1401,1407,1409,1413,1418,1424,1430,1434,1445,1457,1463,1465,1472,0,0,0,0,0,0,0,0,0,0,0,0,0,0,0,0,1380,1362,1358,1356,1354,1353,1353,1349,1346,1347,1349,1353,1362,1367,1373,1380,1390,1399,1411,1432,1449,1476,1495,1518,0,0,0,0,0,0,0,0,0,3635,3622,3597,3584,3547,3535,3510,3510,3510,3510,3522,3510,3486,3463,3439,3428,3439,3439,3451,3475,3486,3486,3522,3535,0,0,0,0,0,0,0,0,0,0,0,0,0,954,952,948,945,943,941,939,939,937,936,938,0,0,0,0,796,795,793,788,0,0,0,0,0,699,696,692,689,686,684,682,679,675,673,670,668,667,664,662,661,658,655,654,652,649,647,645,643,642,640,640,639,637,635,634,632,630,629,627,624,622,621,619,618,616,615,614,614,612,610,610,609,607,606,605,605,604,603,601,601,601,600,599,598,598,597,597,596,595,594,594,593,592,591,590,590,589,589,588,588,587,587,587,586,586,587,587,587,587,586,586,587,588,588,589,589,589,591,592,593,593,0,0
0,0,0,0,0,0,0,0,0,0,0,0,0,0,0,0,0,0,0,0,0,0,0,0,0,0,0,0,0,0,0,0,0,908,907,907,904,904,905,906,908,910,913,915,916,917,0,0,0,0,0,0,0,0,0,0,0,0,0,0,0,0,0,0,0,0,0,0,0,0,0,0,0,0,0,0,0,0,0,0,0,0,0,0,0,0,0,0,0,1369,1376,1380,1382,1386,1386,1390,1393,1397,1399,1401,1405,1409,1418,1422,1428,1432,1443,1457,1463,1467,1472,0,0,0,0,0,0,0,0,0,0,0,0,0,0,0,0,1371,1358,1354,1353,1351,1353,1353,1349,1347,1349,1351,1354,1362,1367,1373,1382,1395,1403,1415,1438,1463,1487,1502,1524,0,0,0,0,0,0,0,3622,3622,3622,3610,3597,3559,3547,3522,3510,3510,3510,3498,3510,3498,3463,3451,3416,3416,3428,3439,3451,3486,3498,3498,3547,3559,0,0,0,0,0,0,0,0,0,0,0,0,0,958,951,947,945,943,940,939,938,936,936,939,0,0,0,801,798,796,793,0,0,0,0,0,702,698,695,691,689,687,684,682,680,676,673,669,668,667,665,662,661,658,656,654,652,649,647,646,644,642,640,639,638,637,635,634,632,630,629,627,624,622,621,621,619,618,616,615,614,612,611,610,609,608,608,607,606,605,603,602,602,602,601,599,599,598,597,597,596,595,594,593,593,592,592,590,589,589,588,588,588,587,587,587,586,586,587,587,587,587,587,587,588,589,589,590,590,592,593,593,594,594,0,0
0,0,0,0,0,0,0,0,0,0,0,0,0,0,0,0,0,0,0,0,0,0,0,0,0,0,0,0,0,0,0,0,0,909,907,907,905,904,905,905,908,911,913,914,916,917,921,0,0,0,0,0,0,0,0,0,0,0,0,0,0,0,0,0,0,0,0,0,0,0,0,0,0,0,0,0,0,0,0,0,0,0,0,0,1356,1362,1367,1369,1369,1371,1376,1380,1382,1390,1391,1393,1395,1397,1397,1401,1405,1411,1418,1422,1426,1432,1441,1459,1463,1470,1476,0,0,0,0,0,0,0,0,0,0,0,0,0,0,0,1365,1362,1353,1351,1351,1351,1353,1353,1351,1349,1351,1354,1358,1365,1371,1376,1388,1399,1407,1426,1459,1474,1491,1502,1524,0,0,0,0,0,0,0,3635,3622,3622,3610,3597,3559,3522,3510,3498,3498,3498,3498,3498,3486,3439,3428,3416,3416,3428,3451,3463,3498,3510,3510,3559,3559,0,0,0,0,0,0,0,0,0,0,0,0,0,959,950,947,945,942,939,938,937,936,934,0,0,0,0,0,800,798,795,0,0,0,0,0,702,697,694,691,688,686,684,682,680,676,673,670,668,667,665,662,661,659,656,654,652,650,648,646,644,642,641,639,638,636,635,633,632,630,629,627,624,622,621,621,620,618,616,615,614,613,612,611,609,609,608,608,607,605,604,602,602,602,601,600,599,598,598,597,596,595,594,594,593,593,592,591,590,589,588,588,587,587,587,586,586,585,586,586,586,586,586,587,588,589,590,591,592,592,593,594,594,594,0,0
0,0,0,0,0,0,0,0,0,0,0,0,0,0,0,0,0,0,0,0,0,0,0,0,0,0,0,0,0,0,0,0,0,910,907,907,906,905,906,907,908,911,912,913,917,919,922,0,0,0,0,0,0,0,0,0,0,0,0,0,0,0,0,0,0,0,0,0,0,0,0,0,0,0,0,0,0,0,0,0,0,0,1351,1351,1360,1364,1367,1369,1371,1373,1378,1380,1384,1390,1391,1393,1395,1397,1397,1401,1405,1413,1418,1420,1424,1430,1438,1457,1463,1474,1487,0,0,0,0,0,0,0,0,0,0,0,0,0,0,1391,1367,1353,1349,1347,1347,1349,1353,1353,1353,1353,1356,1362,1364,1369,1375,1382,1395,1403,1413,1432,1463,1476,1495,1504,1524,0,0,0,0,0,0,0,0,3635,0,3597,3584,3547,3522,3498,3486,3486,3498,3498,3486,3475,3428,3416,3416,3416,3439,3463,3486,3522,3535,3535,3547,3547,0,0,0,0,0,0,0,0,0,0,0,0,0,961,950,947,944,943,940,938,936,936,933,0,0,0,0,0,0,0,796,0,0,0,0,0,701,697,694,691,689,686,683,682,680,676,673,670,669,667,666,663,662,659,656,654,652,650,648,647,645,643,641,640,638,636,634,633,631,630,629,627,624,623,621,621,621,619,616,615,615,613,612,611,610,609,609,609,608,607,605,604,603,603,602,600,599,599,598,598,597,596,594,593,593,593,592,591,590,590,589,588,588,588,587,587,586,585,584,584,585,586,587,588,588,590,591,591,592,593,593,594,595,595,0,0
0,0,0,0,0,0,0,0,0,0,0,0,0,0,0,0,0,0,0,0,0,0,0,0,0,0,0,0,0,0,0,0,0,0,0,906,905,905,905,906,908,910,912,913,917,919,923,927,0,0,0,0,0,0,0,0,0,0,0,0,0,0,0,0,0,0,0,0,0,0,0,0,0,0,0,0,0,0,0,1351,1349,1353,1353,1354,1360,1364,1365,1369,1371,1375,1380,1382,1384,1390,1393,1393,1395,1397,1399,1403,1409,1415,1418,1422,1426,1430,1438,1457,1463,1474,1491,1506,0,0,0,0,0,0,0,0,0,0,0,0,0,1388,1367,1353,1349,1347,1346,1349,1353,1354,1354,1356,1362,1365,1367,1373,1378,1391,1403,1411,1422,1447,1465,1480,1493,1504,0,0,0,0,0,0,0,0,0,0,0,0,0,0,0,0,0,0,0,0,0,0,0,0,0,0,0,0,0,0,3547,3559,3572,3559,0,0,0,0,0,0,0,0,0,0,0,0,0,962,952,947,944,942,939,936,934,0,0,0,0,0,0,0,0,0,0,0,0,0,707,704,700,696,694,692,690,687,683,681,678,676,673,671,669,668,666,663,662,660,657,655,653,651,649,647,645,642,641,640,638,636,635,633,631,630,629,627,625,623,622,622,621,619,617,616,615,615,614,612,611,610,610,609,609,608,607,605,604,603,602,600,599,599,599,599,598,598,596,594,593,593,593,592,591,590,589,588,588,587,587,587,586,585,584,584,585,586,587,588,590,592,592,593,593,594,595,596,596,596,0,0
0,0,0,0,0,0,0,0,0,0,0,0,0,0,0,0,0,0,0,0,0,0,0,0,0,0,0,0,0,0,0,0,0,0,906,906,905,904,906,906,907,908,908,910,916,920,923,927,929,0,0,0,0,0,0,0,0,0,0,0,0,0,0,0,0,0,0,0,0,0,0,0,0,0,0,0,1353,1353,1353,1353,1353,1354,1358,1360,1364,1364,1367,1367,1373,1378,1382,1386,1390,1393,1395,1397,1397,1399,1401,1405,1413,1417,1418,1422,1426,1430,1438,1453,1461,1476,1500,1515,1529,0,0,0,0,0,0,0,0,0,0,0,0,0,1369,1354,1353,1349,1347,1351,1353,1354,1354,1358,1364,1369,1373,1376,1386,1395,1405,1415,1428,1455,1467,1482,1493,1502,0,0,0,0,0,0,0,0,0,0,0,0,0,0,0,0,0,0,0,0,0,0,0,0,0,0,0,0,0,0,0,0,0,0,0,0,0,0,0,0,0,0,640,640,639,0,0,0,0,945,943,942,939,937,0,0,0,0,0,0,0,0,0,0,0,0,0,711,707,704,700,696,695,692,690,687,683,681,679,676,673,671,669,667,666,663,661,659,657,654,653,651,649,647,644,642,641,640,638,636,635,633,632,631,629,628,626,624,622,622,621,620,618,617,616,616,615,615,613,612,611,611,610,609,607,605,605,604,603,603,601,600,600,599,599,599,598,597,596,594,593,593,592,592,590,589,588,588,588,587,586,585,584,584,584,586,588,589,592,593,593,594,594,595,597,598,599,0,0,0
0,0,0,0,0,0,0,0,0,0,0,0,0,0,0,0,0,0,0,0,0,0,0,0,0,0,0,0,0,0,0,0,0,0,0,0,906,905,906,907,907,907,908,911,917,920,922,926,0,0,0,0,0,0,0,0,0,0,0,0,0,0,0,0,0,0,0,0,1311,1311,1314,1325,0,1342,1347,1353,1354,1354,1354,1354,1356,1360,1360,1362,1365,1365,1369,1371,1375,1380,1384,1388,1391,1393,1395,1397,1397,1401,1405,1407,1417,1418,1420,1422,1428,1432,1443,1453,1463,1482,1504,1520,1527,0,0,0,0,0,0,0,0,0,0,0,0,0,1367,1354,1351,1347,1347,1351,1353,1354,1354,1360,1365,1371,1375,1380,1388,1399,1407,1422,1434,1457,1465,1476,0,0,0,0,0,0,0,0,0,0,0,0,0,0,0,0,0,642,641,0,0,0,0,0,0,0,0,0,0,0,639,639,0,638,0,636,637,636,636,636,636,636,636,637,637,638,638,637,0,0,0,0,942,941,939,0,0,0,0,0,0,0,0,0,0,0,0,0,714,711,707,704,700,697,695,692,690,687,683,682,679,677,674,672,669,667,666,663,661,660,657,654,653,651,649,647,644,642,640,640,639,637,636,634,633,631,629,628,626,624,623,623,622,621,621,619,618,617,616,616,615,614,613,612,611,611,609,608,607,605,605,604,604,603,602,601,600,599,599,599,598,596,595,594,593,593,592,590,590,589,589,588,587,586,585,584,586,587,588,590,592,593,593,595,595,598,599,600,602,0,0,0
0,0,0,0,0,0,0,0,0,0,0,0,0,0,0,0,0,0,0,0,0,0,0,0,0,0,0,0,0,0,0,0,0,0,0,0,907,906,907,907,908,908,909,913,917,920,922,926,927,0,0,0,0,0,0,0,0,0,0,0,0,0,0,0,0,0,0,1293,1306,1309,1311,1313,1323,1332,1342,1346,1349,1354,1356,1358,1360,1364,1364,1365,1367,1367,1371,1375,1378,1382,1384,1388,1391,1395,1397,1397,1401,1405,1407,1411,1417,1418,1422,1426,1432,1438,1445,1453,1463,1491,1509,1522,1531,1534,0,0,0,0,0,0,0,0,0,0,0,0,1365,1358,1356,1351,1349,1351,1351,1354,1356,1362,1365,1373,1378,1384,1393,1403,1413,1428,1441,1459,1465,0,0,0,0,0,0,0,0,0,0,0,0,0,0,0,0,0,0,643,642,642,0,640,0,640,640,640,639,638,637,636,637,636,636,635,634,635,635,635,635,635,635,635,634,635,635,635,636,636,636,636,638,638,0,0,0,0,0,0,0,0,0,0,0,0,0,0,0,0,714,711,707,704,701,697,695,691,689,686,684,682,680,677,674,673,669,667,666,663,661,660,658,655,653,651,649,647,645,642,641,640,640,638,637,635,634,633,631,629,627,627,626,626,624,623,622,621,621,619,618,617,616,616,615,613,612,612,611,610,609,609,607,606,606,605,604,603,602,601,601,601,600,600,0,598,597,595,593,592,592,590,589,588,587,586,585,586,587,588,589,592,593,595,595,596,598,599,602,603,604,0,0,0
0,0,0,0,0,0,0,0,0,0,0,0,0,0,0,0,0,0,0,0,0,0,0,0,0,0,0,0,0,0,0,0,0,0,0,0,909,907,908,908,908,908,910,913,917,920,922,925,927,0,0,0,0,0,0,0,0,0,0,0,0,0,0,0,0,1288,1288,1291,1299,1303,1306,1308,1313,1314,1325,1337,1344,1349,1356,1362,1365,1367,1367,1367,1369,1369,1373,1378,1380,1386,1388,1390,1391,1393,1395,1399,1401,1407,1409,1411,1418,1420,1424,1430,1436,1443,1447,1453,1461,1476,1506,1527,1534,1543,0,0,0,0,0,0,0,0,0,0,0,1371,1365,1358,1356,1351,1351,1351,1353,1354,1358,1362,1367,1375,1382,1390,1395,1403,1420,1434,1447,1463,1467,0,0,0,0,0,0,0,0,0,0,0,0,0,0,0,0,0,645,644,642,642,641,640,640,639,639,638,637,636,636,635,635,635,634,634,634,634,634,634,634,634,634,634,634,634,634,634,635,635,636,636,636,638,639,0,0,0,0,0,0,0,0,0,0,0,0,0,0,0,713,710,708,705,702,698,695,692,689,686,684,682,680,677,675,673,669,667,665,662,661,660,658,655,654,652,650,648,647,644,642,641,640,638,637,636,634,634,632,631,629,629,628,628,627,626,624,623,622,622,622,621,619,619,618,616,616,616,616,616,0,613,610,609,609,609,608,606,605,603,603,603,603,602,601,599,599,597,595,594,593,592,591,588,588,587,586,586,587,588,589,593,594,596,596,597,598,600,604,605,607,609,0,0
0,0,0,0,0,0,0,0,0,0,0,0,0,0,0,0,0,0,0,0,0,0,0,0,0,0,0,0,0,0,0,0,0,0,0,0,910,908,908,909,911,912,913,915,916,918,921,924,0,0,0,0,0,0,0,0,0,0,0,0,0,0,0,1308,1303,1296,1294,1294,1298,1299,1303,1304,1309,1311,1316,1321,1335,1344,1351,1360,1365,1369,1369,1369,1369,1371,1373,1378,1382,1388,1390,1391,1393,1393,1395,1399,1405,1411,1413,1413,1418,1424,1430,1436,1441,1445,1449,1455,1461,1474,1504,1527,1538,1566,0,0,0,0,0,0,0,0,0,0,0,1369,1364,1356,1353,1349,1349,1349,1351,1354,1358,1362,1369,1376,1384,1391,1397,1407,1424,1434,1453,1465,1476,0,0,0,0,0,0,0,0,0,0,0,0,0,0,0,0,0,646,644,642,642,641,640,639,638,638,637,636,636,635,635,634,634,634,633,633,633,633,633,633,634,634,633,633,633,633,633,634,634,635,635,636,637,639,640,0,0,0,0,0,0,0,0,0,0,0,0,0,719,713,711,708,705,702,698,696,692,689,687,685,682,681,677,675,673,670,668,666,663,662,660,659,656,654,653,651,649,647,646,643,642,641,640,639,638,636,636,634,633,632,631,630,630,629,629,628,627,627,627,627,0,0,623,623,0,623,0,0,619,618,617,0,613,612,612,611,611,610,607,606,605,605,604,603,602,600,599,597,595,594,592,591,588,588,587,586,586,587,588,591,594,596,598,598,599,600,603,604,606,609,610,0,0
0,0,0,0,0,0,0,0,0,0,0,0,0,0,0,0,0,0,0,0,0,0,0,0,0,0,0,0,0,0,0,0,0,0,0,0,912,909,909,910,912,913,913,915,915,917,918,922,0,0,0,0,0,0,0,0,0,0,0,0,0,0,0,1316,1316,1316,1313,1308,1306,1304,1304,1306,1308,1309,1313,1318,1321,1333,1342,1353,1362,1369,1369,1369,1371,1373,1375,1380,1384,1388,1388,1390,1393,1395,1397,1405,1407,1411,1413,1413,1417,1424,1432,1438,1443,1445,1449,1455,1461,1470,0,1531,1545,1574,0,0,0,0,0,0,1513,0,0,0,0,0,1364,1356,1354,1351,1349,1351,1353,1354,1360,1364,1369,1376,1384,1395,1403,1413,1426,1434,1457,1472,1489,0,0,0,0,0,0,0,0,0,0,0,0,0,0,0,0,0,647,644,643,642,641,640,639,638,638,636,636,635,634,634,634,633,633,633,633,632,632,632,633,633,633,633,633,632,633,633,634,634,635,635,636,637,639,640,640,0,0,0,0,0,0,0,0,0,0,0,722,719,714,711,707,705,702,698,695,692,689,687,685,682,681,677,675,673,671,669,667,665,663,662,660,657,656,654,654,652,649,648,647,645,643,642,641,641,640,639,636,635,635,634,634,0,0,0,0,0,0,632,632,631,631,0,628,627,626,623,622,622,621,620,618,617,616,615,614,612,611,609,609,608,607,606,604,604,601,599,597,596,594,593,591,589,588,587,586,587,588,590,592,596,598,599,599,599,601,604,605,608,609,610,0,0
0,0,0,0,0,0,0,0,0,0,0,0,0,0,0,0,0,0,0,0,0,0,0,0,0,0,0,0,0,0,0,0,0,0,0,912,911,909,909,910,911,912,913,913,913,916,917,0,0,0,0,0,0,0,0,0,0,0,0,0,0,0,0,1326,1326,1323,1321,1318,1316,1311,1311,1311,1309,1311,1313,1316,1319,1325,1333,1342,1351,1365,1367,1369,1369,1371,1375,1378,1382,1388,1388,1391,1393,1393,1397,1405,1407,1409,1411,1413,1418,1428,1434,1438,1443,1445,1449,1455,1461,1467,0,0,1547,1576,0,0,1536,1529,1524,1513,1509,0,0,0,0,1364,1364,1358,1354,1351,1349,1351,1353,1356,1360,1364,1371,1376,1384,1397,1405,1417,1428,1436,1457,1476,1493,0,0,0,0,0,0,0,0,0,0,0,0,0,0,0,0,0,647,645,642,641,640,639,638,637,637,636,635,634,634,634,634,634,633,633,633,632,632,631,632,633,633,632,632,632,633,633,634,634,634,635,636,637,640,641,641,0,0,0,0,0,0,0,0,0,0,725,721,718,714,711,707,705,700,0,696,693,691,689,687,683,681,677,675,674,672,670,668,666,664,662,661,660,658,656,655,654,653,650,649,648,647,645,643,0,0,0,0,637,0,0,0,0,0,0,0,0,0,638,636,635,634,634,632,630,629,627,624,623,622,622,620,618,617,616,616,614,612,610,609,608,607,606,605,604,603,599,598,597,595,593,591,588,588,587,586,587,588,592,594,597,599,599,599,600,602,604,605,607,609,609,0,0
0,0,0,0,0,0,0,0,0,0,0,0,0,0,0,0,0,0,0,0,0,0,0,0,0,0,0,0,0,0,0,0,0,0,0,910,912,910,910,912,912,912,913,913,915,917,917,0,0,0,0,0,0,0,0,0,0,0,0,1428,0,0,0,0,1340,1335,1330,1325,1321,1318,1318,1316,1314,1314,1314,1316,1318,1321,1328,1337,1342,1347,1356,1362,1367,1371,1373,1378,1384,1388,1388,1391,1393,1395,1399,1405,1407,1409,1411,1413,1418,1428,1432,1436,1441,1443,1451,1459,1463,1474,1480,0,0,1581,1579,1534,1527,1513,1509,1500,1500,1500,0,0,0,1362,1362,1358,1356,1353,1353,1353,1354,1356,1362,1367,1373,1378,1386,1399,1407,1420,1430,1436,1457,1476,0,0,0,0,0,0,0,0,0,0,0,0,0,0,0,0,0,0,648,645,643,641,640,639,637,637,636,636,635,634,634,634,634,634,633,633,633,633,632,632,632,633,633,633,632,633,633,634,634,634,634,635,636,637,639,640,640,0,0,0,0,0,0,0,0,0,728,723,721,718,715,712,708,705,701,698,696,694,691,689,687,683,681,678,676,675,673,671,669,667,666,664,663,662,660,659,658,657,655,654,652,649,647,647,0,0,0,0,0,0,0,0,0,0,649,648,648,647,643,641,640,638,635,634,634,633,631,630,628,626,624,623,621,620,618,618,617,615,612,611,610,609,609,607,605,605,603,601,599,597,595,593,591,589,588,587,587,588,589,592,595,598,599,600,600,601,603,604,605,606,607,608,0,0
0,0,0,0,0,0,0,0,0,0,0,0,0,0,0,0,0,0,0,0,0,0,0,0,0,0,0,0,0,0,0,0,0,0,0,911,912,911,911,912,912,912,913,914,917,918,918,0,0,0,0,0,0,0,0,0,1447,1443,1436,1428,1420,1411,0,0,1354,1344,1339,1333,1328,1325,1323,1323,1319,1319,1316,1318,1319,1321,1326,1333,1337,1340,1346,1353,1365,1369,1373,1378,1382,1384,1388,1390,1393,1397,1401,1405,1405,1407,1409,1411,1417,1424,1428,1430,1434,1438,1449,1459,1465,1478,1489,0,1547,1574,1543,1511,1495,1491,1498,1495,1495,1495,1491,0,0,1360,1360,1358,1358,1354,1354,1354,1356,1358,1364,1369,1375,1380,1391,1401,1409,1420,1430,1438,1459,1472,0,0,0,0,0,0,0,0,0,0,0,0,0,0,0,0,0,0,649,646,644,642,641,639,638,637,636,636,635,634,634,634,634,634,633,633,633,633,632,632,632,633,633,633,633,633,633,635,635,636,636,636,637,638,639,640,0,0,0,0,0,0,0,0,0,732,729,724,721,717,715,712,708,705,703,699,696,694,692,690,688,685,682,679,677,676,674,673,671,669,668,666,665,663,662,661,659,657,655,654,0,0,0,0,0,0,0,0,0,0,0,657,654,652,650,649,648,648,646,643,641,640,637,635,634,633,633,631,629,627,625,623,622,620,619,618,616,615,613,611,611,610,609,607,605,604,603,600,599,597,595,593,591,589,588,587,588,589,589,592,594,598,599,600,600,602,603,604,605,605,606,607,0,0
0,0,0,0,0,0,0,0,0,0,0,0,0,0,0,0,0,0,0,0,0,0,0,0,0,0,0,0,0,0,0,0,0,0,0,913,912,912,911,911,911,912,913,914,917,919,919,0,0,0,0,0,0,0,0,0,1447,1441,1434,1428,1420,1411,1399,1376,1367,1354,1346,1339,1335,1332,1330,1330,1325,1325,1321,1321,1323,1325,1328,1333,1335,1337,1342,1347,1362,1365,1369,1375,1380,1384,1386,1390,1391,1395,1399,1401,1403,1405,1409,1411,1418,1424,1428,1428,1434,1438,1449,1459,1465,1482,1495,0,1536,1543,1504,1489,1478,1476,1474,1474,1476,1476,0,0,1356,1360,1358,1358,1358,1354,1354,1354,1356,1358,1364,1369,1375,1384,1393,1403,1411,1422,1430,1441,1463,1474,0,0,0,0,0,0,0,0,0,0,0,0,0,0,0,0,0,0,649,647,645,642,641,639,637,637,636,636,636,635,635,635,634,634,634,634,634,634,633,633,633,633,633,633,633,634,634,635,636,636,636,636,637,638,640,0,0,0,0,0,0,0,0,0,0,736,729,724,721,717,714,712,709,706,704,700,696,695,693,691,690,688,683,681,678,677,675,674,673,671,670,668,667,666,664,662,0,0,0,0,0,0,0,0,671,670,0,665,663,662,660,659,657,654,652,650,649,648,646,644,642,640,638,636,634,633,632,631,629,628,626,623,622,621,619,618,616,616,613,612,611,610,609,607,605,604,603,600,599,597,594,593,591,589,588,587,588,589,590,592,594,598,599,600,601,602,603,603,604,604,605,605,0,0
0,0,0,0,0,0,0,0,0,0,0,0,0,0,0,0,0,0,0,0,0,0,0,0,0,0,0,0,0,0,0,0,0,0,0,916,914,913,912,912,910,910,913,914,917,920,922,925,0,0,0,0,0,0,0,0,1453,1447,1436,1430,1422,1411,1397,1376,1369,1364,1356,1347,1344,1342,1339,1337,1333,1330,1326,1326,1326,1328,1330,1335,1335,1337,1340,1344,1358,1362,1365,1371,1375,1380,1384,1391,1393,1397,1401,1401,1403,1405,1409,1411,1417,1422,1426,1426,1432,1438,1449,1461,1465,1480,1495,0,1515,1504,1478,1470,1465,1465,1463,1465,1467,1463,0,1364,1362,1360,1358,1358,1358,1356,1354,1356,1358,1360,1365,1371,1376,1384,1395,1405,1413,1426,1432,1443,1465,1480,0,0,0,0,0,0,0,0,0,0,0,0,0,0,0,0,0,0,649,648,647,644,642,640,638,637,637,637,637,636,636,636,635,635,634,634,634,634,634,634,634,634,634,634,634,635,635,636,636,636,636,637,638,639,640,0,0,0,0,0,0,0,0,0,0,735,729,726,722,719,715,712,709,707,0,702,698,696,694,692,690,689,685,682,681,679,677,676,675,674,673,671,669,667,0,0,0,0,0,0,0,677,675,673,671,670,668,666,664,662,661,660,657,655,653,651,649,647,646,644,642,640,638,635,634,633,631,630,629,628,626,623,622,621,619,617,616,615,613,612,611,610,609,606,605,604,602,600,599,596,594,592,590,589,588,588,588,590,590,592,594,598,599,600,600,601,602,602,602,603,603,603,0,0
0,0,0,0,0,0,0,0,0,0,0,0,0,0,0,0,0,0,0,0,0,0,0,0,0,0,0,0,0,0,0,0,0,0,0,0,915,914,914,913,913,913,913,914,917,919,922,925,0,0,0,0,0,0,0,1457,1453,1447,1436,1430,1422,1411,1395,1376,1369,1364,1360,1354,1351,1347,1344,1342,1340,1337,1335,1333,1333,1333,1332,1335,1337,1337,1340,1346,1354,1354,1362,1365,1369,1375,1376,1382,1388,1395,1401,1401,1403,1405,1407,1411,1417,1420,1424,1424,1430,1438,1447,1459,1465,1474,1489,0,0,1480,1470,1465,1463,1463,1463,1463,1461,1447,0,1365,1364,1360,1358,1356,1358,1356,1356,1358,1360,1364,1369,1375,1378,1388,1395,1405,1415,1428,1432,1447,1467,1484,0,0,0,0,0,0,0,0,0,0,0,0,0,0,0,0,0,0,0,0,0,646,0,0,638,638,638,638,638,636,636,636,635,635,635,635,636,636,634,634,634,634,634,635,635,636,636,636,637,637,638,639,640,0,0,0,0,0,0,0,0,755,0,0,739,735,729,726,723,720,716,712,710,707,705,703,699,697,696,694,692,690,688,687,684,682,681,678,676,675,0,0,0,0,693,691,689,687,684,683,681,678,676,675,673,670,668,666,664,662,660,659,657,654,652,649,648,647,644,642,640,640,637,635,633,631,630,629,627,625,624,622,621,620,618,617,615,614,612,611,610,609,607,605,604,603,601,599,598,596,594,593,591,589,588,588,589,591,592,593,595,597,598,599,599,600,600,600,600,600,600,600,0,0
0,0,0,0,0,0,0,0,0,0,0,0,0,0,0,0,0,0,0,0,0,0,0,0,0,0,0,0,0,0,0,0,0,0,0,0,915,915,914,913,913,913,913,914,917,918,923,927,928,0,0,0,0,0,0,0,1453,1447,1438,1434,1424,1413,1399,1376,1367,1362,1360,1358,1358,1356,1354,1353,1347,1342,1342,1339,1339,1337,1335,1335,1337,1337,1340,1346,1351,1353,1358,1360,1365,1369,1373,1378,1382,1390,1397,1399,1401,1405,1409,1413,1417,1420,1422,1426,1432,1441,1449,1457,1463,1472,1482,1489,1484,1467,1461,1461,1459,1459,1457,1457,1453,1443,0,1367,1364,1358,1358,1356,1356,1358,1356,1362,1365,1367,1373,1376,1382,1391,1397,1405,1417,1430,1436,1453,1470,1487,0,0,0,0,0,0,0,0,0,0,0,0,0,0,0,0,0,0,0,0,0,0,0,0,638,638,639,639,0,0,0,0,0,0,0,0,0,0,0,0,0,0,0,0,0,637,637,637,637,637,0,0,0,0,0,0,0,0,0,0,0,754,747,743,737,734,730,727,724,722,719,713,711,708,706,704,701,699,698,696,695,693,691,690,689,685,683,0,0,0,0,0,0,695,694,692,690,687,685,683,681,678,676,674,672,670,668,665,663,661,660,657,655,0,651,649,647,645,642,640,639,638,636,633,630,629,628,0,0,0,622,620,619,618,617,616,613,612,611,610,609,607,605,604,603,602,600,598,598,595,593,592,591,590,589,589,590,591,592,593,595,597,598,598,598,599,599,599,599,599,598,598,0,0
0,0,0,0,0,0,0,0,0,0,0,0,0,0,0,0,0,0,0,0,0,0,0,0,0,0,0,0,0,0,0,0,0,0,0,0,918,917,916,915,913,912,912,913,917,919,923,927,928,0,0,0,0,0,0,0,0,1451,1441,1434,1424,1411,1395,1376,1367,1360,1360,1360,1360,1362,1362,1360,1356,1351,1347,1346,1344,1342,1340,1340,1340,1342,1344,1347,1351,1351,1356,1358,1362,1365,1369,1373,1378,1384,1393,1395,1401,1407,1409,1413,1417,1418,1422,1426,1434,1441,1451,1457,1463,1470,1472,1472,0,1455,1451,1451,1451,1453,1451,1455,1449,1441,0,1367,1365,1358,1356,1354,1354,1356,1360,1364,1367,1371,1376,1380,1386,1393,1401,1411,1422,1432,1441,1459,1478,1495,0,0,0,0,0,0,0,0,0,0,0,0,0,0,0,0,0,0,0,0,0,0,0,0,0,0,0,0,0,0,0,0,0,0,0,0,0,0,0,0,0,0,0,0,0,0,0,0,0,0,0,0,0,0,0,0,0,0,0,0,0,753,746,743,738,735,730,728,725,723,720,715,712,710,707,705,703,702,701,699,697,697,0,0,0,0,0,0,0,0,0,701,699,697,695,693,690,688,685,683,681,677,676,674,670,0,0,665,0,0,0,0,0,0,0,0,0,0,0,0,0,0,0,0,0,624,623,0,0,619,618,617,617,616,614,612,611,610,610,609,607,605,604,603,600,599,598,597,596,594,593,592,591,590,589,589,589,590,591,593,595,596,597,597,597,597,597,597,597,596,596,595,0,0
0,0,0,0,0,0,0,0,0,0,0,0,0,0,0,0,0,0,0,0,0,0,0,0,0,0,0,0,0,0,0,0,0,0,0,0,0,918,917,917,915,915,916,917,919,921,923,926,928,0,0,0,0,0,0,0,0,1455,1445,1438,1430,1418,1395,1376,1365,1358,1358,1356,1360,1362,1364,1364,1362,1360,1356,1353,1351,1349,1346,1346,1346,1346,1347,1349,1349,1353,1354,1358,1360,1364,1367,1371,1375,1380,1388,1393,1399,1407,1409,1413,1417,1422,1424,1430,1436,1443,1451,1459,1463,1467,1467,1465,1459,1447,1445,1443,1443,1445,1445,1449,1445,1441,0,1367,1365,1358,1354,1354,1354,1358,1362,1367,1371,1376,1380,1384,1390,1395,1403,1418,1426,1436,1447,1465,1480,1495,0,0,0,0,0,0,0,0,0,0,0,0,0,0,0,0,0,0,0,0,0,0,0,0,0,0,0,0,0,0,0,0,0,0,0,0,0,0,0,0,0,0,0,0,0,0,0,0,0,0,0,0,0,0,0,0,0,0,771,0,757,754,747,744,739,736,731,728,726,724,722,719,715,713,710,707,705,704,704,703,701,700,0,0,0,0,0,0,709,706,705,703,700,697,695,693,690,688,685,682,679,0,0,0,0,0,0,0,0,0,0,0,0,0,0,0,0,0,0,0,0,0,0,0,0,619,0,0,0,0,0,0,0,611,610,609,609,608,608,606,605,603,602,600,599,598,597,596,595,593,593,592,592,591,590,590,590,591,591,593,594,595,595,595,595,595,595,595,595,594,593,593,0,0
0,0,0,0,0,0,0,0,0,0,0,0,0,0,0,0,0,0,0,0,0,0,0,0,0,0,0,0,0,0,0,0,0,0,0,0,0,917,917,916,914,914,916,918,922,924,925,927,928,929,0,0,0,0,0,0,0,1459,1449,1441,1430,1413,1388,1371,1365,1360,1358,1358,1360,1362,1362,1362,1362,1362,1360,1358,1356,1353,1351,1351,1349,1347,1349,1351,1351,1356,1358,1362,1364,1364,1367,1371,1376,1380,1384,1390,1397,1405,1407,1411,1415,1418,1426,1434,1441,1447,1453,1459,1461,1463,1461,1453,1441,1438,1436,1436,1436,1438,1441,1443,1438,0,0,1367,1364,1356,1354,1354,1356,1358,1364,1369,1373,1376,1382,1388,1393,1401,1411,1422,1428,1438,1457,1474,1489,0,0,0,4204,4204,0,0,0,0,0,0,0,0,0,0,0,0,0,0,0,0,0,0,0,0,0,0,0,0,0,0,0,0,0,0,0,0,0,0,0,0,0,0,0,0,0,0,0,0,0,0,0,0,0,0,0,0,776,773,765,762,756,753,749,745,741,738,733,730,727,725,723,721,719,715,713,712,709,708,706,706,0,0,0,0,0,0,715,713,710,707,706,703,700,697,695,693,691,0,0,0,0,0,0,0,0,0,0,639,0,0,0,0,0,0,0,0,626,624,0,621,621,619,617,617,616,614,614,612,611,610,610,609,609,608,607,606,605,605,605,604,602,600,599,598,597,597,596,595,594,593,592,592,592,591,590,590,590,591,591,592,593,594,594,595,594,594,594,594,594,594,593,593,0,0
0,0,0,0,0,0,0,0,0,0,0,0,0,0,0,0,0,0,0,0,0,0,0,0,0,0,0,0,0,0,0,0,0,0,0,0,0,0,917,916,914,915,918,920,922,923,924,926,927,0,0,0,0,0,0,0,0,1459,1451,1441,1430,0,1371,1367,1364,1360,1358,1358,1358,1360,1360,1360,1358,1360,1358,1360,1358,1356,1354,1354,1353,1353,1353,1354,1356,1362,1365,1367,1367,1369,1371,1375,1382,1386,1386,1390,1397,1403,1407,1409,1411,1415,1426,1436,1443,1447,1453,1459,1459,1457,1447,1438,1432,1430,1430,1430,1430,1432,1436,1438,1436,0,0,1367,1362,1356,1351,1354,1356,1360,1364,1369,1373,1380,1386,1393,1399,1405,1415,1424,1430,1445,1465,1482,1493,0,0,0,4187,4204,4204,4239,0,0,0,0,0,0,0,0,0,0,0,0,0,0,0,0,0,0,0,0,0,0,0,0,0,0,0,0,0,0,0,0,0,0,0,0,0,0,0,0,0,0,0,0,0,0,0,0,0,0,774,772,764,761,756,753,750,746,743,738,736,732,729,727,725,723,721,719,716,715,713,712,710,709,0,0,0,0,0,719,716,714,712,708,0,0,0,0,0,0,0,0,0,0,0,646,645,644,643,641,639,638,636,635,633,630,629,628,627,626,624,622,621,619,619,617,616,615,614,612,612,611,610,609,608,607,606,605,605,605,604,604,603,601,600,599,598,597,597,596,595,595,594,593,592,592,592,591,591,591,591,591,592,592,593,593,593,593,594,594,594,594,593,593,593,593,0,0
0,0,0,0,0,0,0,0,0,0,2192,2197,2211,0,0,0,0,0,0,0,0,0,2270,2275,2265,0,0,0,0,0,0,0,0,0,0,0,0,0,0,917,917,917,919,921,922,922,922,923,926,927,0,0,0,0,0,0,1470,1461,1453,1443,1434,0,1371,1365,1362,1360,1358,1358,1358,1360,1360,1358,1358,1358,1358,1358,1358,1356,1356,1356,1356,1358,1358,1362,1367,1369,1371,1371,1371,1373,1376,1382,1390,1391,1391,1397,1401,1405,1407,1411,1413,1415,1428,1438,1443,1447,1451,1453,1451,1445,1436,1432,1428,1428,1426,1428,1428,1430,1432,1434,1430,0,0,1367,1362,1358,1354,1356,1358,1360,1365,1371,1376,1382,1388,1395,1403,1409,1418,1428,1434,1455,1470,1489,1495,1502,1513,0,4204,4221,4221,4256,0,0,0,0,0,0,0,0,0,0,0,0,0,0,0,0,0,0,0,0,0,0,0,0,0,0,0,0,0,0,0,0,0,0,0,0,0,0,0,0,0,0,0,0,0,0,0,0,0,0,774,771,764,761,756,754,751,747,744,740,738,736,732,729,728,726,724,723,721,721,718,0,0,0,0,0,0,0,0,721,0,0,0,0,0,0,0,0,0,0,0,654,653,649,648,646,645,644,642,640,638,636,635,634,631,629,628,627,626,624,622,621,620,618,617,616,614,613,612,612,611,610,609,608,607,605,605,604,604,603,602,602,601,600,600,599,598,597,597,596,595,595,593,593,592,592,592,592,592,592,592,592,592,592,592,593,593,593,593,593,593,594,593,593,593,592,0,0
0,0,0,0,0,0,0,0,0,0,2211,2216,2221,2230,2230,0,2245,2250,2255,2265,2270,2260,2265,2270,2270,2270,0,0,0,0,0,0,0,0,0,0,0,0,0,917,917,917,918,920,921,921,922,922,924,927,0,0,0,0,0,0,0,1461,1455,1445,0,0,1371,1365,1362,1362,1360,1360,1358,1358,1356,1354,1354,1354,1358,1358,1358,1358,1358,1360,1364,1365,1367,1375,1380,1384,1388,1388,1382,1384,1386,1388,1393,1395,1397,1403,1407,1409,1411,1413,1415,1420,1430,1438,1443,1447,1447,1443,1441,1434,1428,1428,1424,1422,1422,1424,1424,1426,1430,1430,1422,0,1369,1365,1360,1358,1356,1358,1358,1362,1365,1373,1376,1386,1391,1401,1407,1413,1422,1428,1436,1459,1472,1493,1500,1509,1515,0,4204,4221,4221,4239,0,0,0,0,0,0,0,0,0,0,0,0,0,0,0,0,0,0,0,0,0,0,0,0,0,0,0,0,0,0,0,0,0,0,0,0,0,0,0,0,0,0,0,0,0,0,0,0,787,0,775,772,766,761,756,755,752,747,745,742,739,738,736,732,730,728,728,728,726,0,0,0,0,0,0,0,0,0,0,0,0,0,0,0,0,0,0,0,659,657,655,654,652,649,648,646,645,643,641,640,637,636,635,633,631,629,628,626,625,624,622,621,620,618,618,616,614,613,612,612,611,610,609,608,606,605,604,604,603,603,602,601,601,600,599,598,598,597,597,596,596,595,594,593,593,592,592,593,593,593,593,592,592,592,592,593,593,593,593,594,593,594,594,593,593,593,0,0
0,0,0,0,0,0,0,0,0,0,2211,2211,2221,2230,2235,0,2250,2250,2260,2260,2265,2260,2265,2270,2265,2270,2280,0,0,0,0,0,0,0,0,0,0,0,0,0,917,917,917,921,921,920,922,921,925,927,0,0,0,0,0,0,0,0,1459,1451,0,0,1367,1364,1362,1362,1360,1358,1358,1356,1356,1354,1354,1353,1356,1356,1358,1360,1364,1367,1373,1376,1386,1391,1397,1397,1397,1399,1397,1399,1399,1399,1401,1403,1403,1407,1409,1411,1415,1418,1422,1428,1436,1441,1445,1447,1443,1438,1432,1428,1424,1422,1422,1420,1422,1422,1422,1426,1428,1426,1418,0,1369,1364,1360,1358,1356,1356,1360,1364,1367,1373,1378,1388,1393,1401,1409,1415,1424,1432,1447,1463,1474,1491,1500,1511,1524,0,4204,4221,4221,4239,4274,0,0,0,0,0,0,0,0,0,0,0,0,0,0,0,0,0,0,0,0,0,0,0,0,0,0,0,0,0,0,0,0,0,0,0,0,0,0,0,0,0,0,0,0,0,0,795,785,781,775,773,769,764,759,756,754,751,747,745,743,741,739,738,736,732,730,0,0,0,0,0,0,0,0,0,0,0,0,0,0,0,670,669,667,664,662,660,659,656,654,652,651,649,648,647,645,643,641,640,638,636,635,634,632,630,628,627,626,625,623,622,621,619,618,616,615,613,613,613,612,611,610,609,608,606,605,605,604,604,603,602,602,600,599,598,598,598,598,597,596,596,595,595,594,594,594,594,594,593,594,593,593,593,593,593,594,593,593,594,594,595,595,594,594,594,0,0
0,0,0,0,0,0,0,0,0,0,2206,2211,2225,2230,2235,2245,2250,2255,2265,2260,2270,2260,2265,2270,2270,2280,2290,0,0,0,0,0,0,0,0,0,0,0,0,0,918,917,917,919,919,920,923,922,927,928,0,0,0,0,0,0,0,0,1461,1455,0,0,1367,1364,1362,1362,1360,1360,1358,1356,1356,1356,1354,1354,1356,1360,1362,1365,1369,1376,1388,1393,1397,1399,1399,1401,1399,1403,1405,1403,1403,1403,1405,1407,1409,1411,1413,1415,1417,1420,1426,1432,1441,1445,1445,1443,1436,1432,1426,1424,1418,1418,1418,1417,1418,1420,1422,1424,1426,1422,1409,1380,1369,1364,1360,1358,1358,1358,1362,1364,1367,1373,1378,1386,1391,1403,1411,1417,1426,1434,1449,1463,1474,1493,1500,1511,1522,4256,4221,4204,4204,4221,4239,4204,0,0,0,0,0,0,0,0,0,0,0,0,0,0,0,0,0,0,0,0,0,0,0,0,0,0,0,0,0,0,0,0,0,0,0,0,0,0,0,0,0,0,0,0,800,794,785,781,775,773,771,766,763,758,756,755,752,748,746,745,744,743,0,0,0,0,0,0,0,0,0,0,0,0,0,0,680,0,0,673,670,669,667,664,661,659,658,655,654,652,651,649,648,647,646,644,642,640,638,636,635,634,632,630,629,627,626,624,623,622,620,618,617,615,614,613,612,612,612,611,610,609,609,608,608,608,607,607,605,605,604,604,603,601,600,599,599,599,598,597,596,596,596,595,595,595,595,595,595,594,594,594,594,594,595,594,0,0,0,597,597,596,596,0,0,0
0,0,0,0,0,0,0,0,0,2216,2211,2211,2221,2230,2235,2240,2250,2250,2260,2265,2270,2265,2265,2265,2270,2280,2290,2301,0,0,0,0,0,0,0,0,0,0,0,0,918,917,916,919,921,922,925,924,928,928,0,0,0,0,0,0,0,0,0,0,0,0,0,1364,1362,1362,1360,1360,1360,1358,1358,1356,1356,1358,1362,1365,1367,1375,1399,1395,1399,1399,1399,1401,1401,1401,1399,1403,1405,1405,1405,1405,1407,1409,1411,1415,1417,1418,1422,1424,1430,1436,1441,1443,1443,1438,1432,1426,1422,1420,1415,1413,1415,1413,1413,1417,1418,1420,1424,1418,1407,1375,1367,1362,1356,1356,1356,1358,1360,1364,1367,1371,1378,1388,1395,1403,1411,1417,1424,1434,1453,1465,1476,1495,1502,1511,1520,4239,4187,4187,4187,4204,4221,4187,0,0,0,0,0,0,0,0,0,0,0,0,0,0,0,0,0,0,0,0,0,742,0,0,0,0,0,0,0,0,0,0,730,731,732,733,735,0,0,0,0,0,0,0,796,792,785,782,778,774,772,769,765,763,759,757,755,753,748,747,0,0,0,0,0,0,0,0,0,0,0,0,0,0,686,682,680,678,676,674,670,669,667,664,662,660,658,655,654,652,651,649,648,647,646,643,640,638,636,636,634,632,630,629,627,626,624,623,622,621,619,617,616,615,612,612,612,611,611,610,609,609,609,609,609,609,608,608,608,606,606,605,604,603,602,600,600,600,599,598,597,597,597,597,598,598,598,598,597,597,596,596,596,596,597,596,0,0,0,602,0,0,0,0,0,0
0,0,0,0,0,0,0,0,0,2216,2216,2216,2221,2230,2235,2245,2250,2255,2260,2265,2270,2265,2265,2265,2270,2280,2295,2301,0,0,0,0,0,0,0,0,0,0,0,0,917,917,917,919,921,922,924,926,929,930,0,0,0,0,0,0,0,0,0,0,0,0,1365,1362,1364,1364,1362,1362,1360,1360,1360,1360,1360,1364,1365,1371,1384,1405,1407,1401,1401,1399,1397,1399,1401,1401,1401,1405,1407,1407,1409,1409,1411,1413,1415,1420,1420,1422,1426,1428,1432,1438,1443,1443,1438,1432,1426,1422,1418,1417,1413,1409,1411,1409,1411,1415,1415,1418,1420,1413,1403,1376,1367,1362,1356,1356,1356,1358,1362,1365,1367,1373,1378,1390,1397,1405,1413,1420,1426,1434,1455,1465,1476,1495,1500,1509,1522,4204,4187,4187,4187,4187,4221,4204,0,0,0,0,0,0,0,0,0,0,0,0,0,0,0,0,0,0,0,0,745,741,739,738,737,736,733,731,730,730,730,730,731,732,733,736,736,738,743,0,0,0,0,0,796,792,785,782,779,775,774,772,771,769,0,0,0,0,0,0,0,0,768,766,765,0,0,0,0,0,0,0,690,688,686,682,680,678,676,674,672,669,667,663,661,659,656,654,653,651,649,648,647,644,0,0,635,634,0,0,0,628,627,626,624,0,622,621,621,618,616,615,615,613,612,611,611,610,609,609,608,608,608,609,609,609,608,608,607,606,606,606,605,604,603,602,601,600,600,599,598,598,598,598,598,598,598,598,598,597,597,596,595,595,596,595,0,0,0,0,0,0,0,0,0,0
0,0,0,0,0,0,0,0,0,2216,2216,2221,2230,2235,2240,2240,2245,2250,2255,2260,2265,2265,2260,2265,2270,2280,2295,2306,0,0,0,0,0,0,0,0,0,0,0,0,917,917,917,919,921,922,922,924,927,928,0,0,0,0,0,0,0,0,0,0,0,0,1367,1365,1365,1364,1362,1364,1364,1365,1367,1369,1371,1373,1380,1401,1407,1413,1411,1405,1403,1401,1397,1399,1401,1401,1403,1407,1409,1409,1411,1411,1415,1415,1418,1420,1422,1424,1428,1432,1436,1441,1441,1441,1434,1426,1418,1417,1415,1415,1411,1409,1409,1407,1407,1411,1413,1415,1415,1409,1399,1375,1367,1362,1358,1358,1362,1362,1364,1365,1367,1373,1382,1390,1397,1407,1415,1422,1428,1438,1455,1465,1478,1498,1502,1509,1515,4153,4187,4170,4187,4204,4221,4204,0,0,0,0,0,0,0,0,0,0,0,0,0,0,0,0,0,0,0,0,745,743,740,738,737,737,736,733,733,733,733,733,735,734,736,737,0,0,0,0,0,0,0,0,795,792,787,785,783,781,779,777,775,775,0,776,776,776,777,0,0,0,771,768,766,0,0,0,0,0,695,693,689,688,686,683,682,679,677,675,672,669,666,662,660,658,653,0,648,648,0,0,0,636,633,632,632,631,628,627,627,626,625,623,621,621,619,618,617,616,615,614,613,611,611,610,609,609,608,607,607,607,607,608,607,607,0,605,606,605,605,605,604,603,603,602,601,600,600,599,598,598,597,597,597,598,598,598,597,596,595,595,594,594,594,0,0,0,0,0,0,0,0,0,0,0
0,0,0,0,0,0,0,0,0,2216,2221,2225,2230,2240,2240,2240,2240,2250,2255,2260,2265,2265,2265,2265,2270,2280,2295,2301,0,0,0,0,0,0,0,0,0,0,0,0,0,917,919,920,920,921,920,921,924,928,929,0,0,0,0,0,0,0,0,0,0,1371,1371,1369,1369,1365,1367,1367,1371,1373,1375,1378,1382,1395,1403,1411,1415,1418,1413,1407,1403,1401,1397,1399,1401,1401,1403,1407,1409,1411,1411,1413,1415,1415,1418,1422,1424,1426,1432,1434,1438,1443,1441,1436,1430,1422,1415,1413,1413,1413,1409,1405,1405,1403,1405,1409,1411,1413,1413,0,0,1371,1365,1360,1360,1358,1360,1362,1364,1367,1369,1373,1384,1391,1399,1407,1415,1424,1430,1441,1457,1467,1478,1495,1502,1506,0,4153,4170,4170,4187,4204,4221,4204,0,0,0,0,0,0,0,0,0,0,0,0,0,0,0,0,0,0,0,750,747,744,741,739,738,738,737,735,735,736,736,736,737,737,738,739,740,0,0,0,0,0,0,0,0,795,788,787,785,784,783,782,780,779,779,779,779,779,779,779,779,776,773,771,0,0,0,0,0,698,696,694,690,689,687,684,682,680,677,676,674,0,0,0,0,0,648,646,645,644,640,639,0,634,633,632,630,629,627,626,624,623,622,622,620,619,618,618,616,616,615,614,612,611,610,609,609,609,607,606,606,606,605,606,605,604,0,604,604,604,603,603,602,601,600,600,600,599,599,598,597,597,596,596,596,596,596,595,594,594,593,593,593,592,592,592,591,591,591,0,0,0,0,0,0,0
0,0,0,0,0,0,0,0,0,2211,2221,2225,2230,2235,2235,2235,2240,2250,2255,2260,2265,2265,2265,2275,2280,2275,2290,2295,2295,0,0,0,0,0,0,0,0,0,0,0,920,919,920,919,919,920,919,921,924,928,929,0,0,0,0,0,0,0,0,0,0,1371,1373,1373,1373,1371,1373,1375,1376,1382,1386,1390,1395,1403,1409,1417,1418,1420,1415,1409,1405,1403,1399,1399,1401,1401,1405,1407,1409,1409,1409,1411,1417,1415,1418,1420,1422,1426,1432,1436,1441,1443,1441,1436,1428,1417,1411,1411,1411,1411,1409,1405,1405,1405,1405,1407,1411,1413,1413,0,1378,1369,1364,1362,1362,1362,1364,1365,1365,1369,1371,1376,1386,1391,1397,1405,1413,1426,1432,1443,1457,1465,1478,1493,1498,1504,0,4153,4170,4187,4187,4204,4204,4187,0,0,0,0,0,0,0,0,0,0,0,0,0,0,0,0,0,0,752,750,746,744,742,740,739,739,738,737,737,737,737,738,738,738,739,740,743,745,0,0,0,0,0,0,0,0,788,788,787,786,785,784,783,782,782,781,781,782,782,782,782,781,0,0,0,0,0,703,700,698,697,694,690,688,686,683,681,678,677,677,0,0,0,653,652,648,646,643,642,641,640,638,636,634,633,631,629,628,626,624,624,623,622,622,621,620,619,618,618,616,616,615,613,611,611,610,609,609,608,606,606,605,605,605,604,604,603,603,603,602,602,600,600,600,599,599,599,598,598,598,597,597,596,596,596,595,594,593,593,592,592,591,591,591,591,590,589,589,589,588,587,586,586,586,0,0
0,0,0,0,0,0,0,0,0,2206,2216,2221,2230,2230,2225,2230,2235,2245,2255,2260,2260,2265,2270,2280,2285,2285,2290,2290,2280,0,0,0,0,0,0,0,0,0,0,0,0,922,922,920,920,920,919,921,924,928,927,0,0,0,0,0,0,0,0,0,0,1378,1376,1378,1376,1376,1380,1382,1384,1390,1393,1397,1401,1411,1417,1420,1422,1420,1418,1413,1409,1407,1403,1401,1401,1399,1405,1407,1407,1411,1409,1411,1415,1417,1417,1420,1422,1428,1434,1438,1443,1441,1436,1432,1424,1413,1411,1409,1409,1411,1411,1407,1407,1407,1405,1407,1411,1411,1409,0,1375,1367,1364,1362,1362,1360,1364,1365,1367,1371,1373,1376,1386,1393,1399,1407,1417,1426,1434,1443,1457,1465,1480,1495,1500,1504,0,4170,4170,4187,4204,4204,4204,4204,0,0,0,0,0,0,0,0,0,0,0,0,0,0,0,0,0,0,753,752,748,745,743,741,740,740,738,738,737,738,738,739,739,739,740,741,744,745,0,0,0,0,0,0,0,0,0,787,787,787,787,786,785,784,784,784,785,785,786,784,783,0,0,0,0,0,0,703,699,697,696,0,0,0,0,0,677,676,0,0,0,653,653,651,649,647,644,642,641,640,639,638,636,635,633,631,629,628,626,624,624,623,622,622,621,621,620,619,618,618,617,616,615,612,612,611,610,610,609,608,607,606,606,605,604,604,603,603,602,601,600,599,599,599,599,599,598,598,598,597,597,597,596,595,594,593,593,593,592,591,590,591,590,590,589,589,588,588,587,586,585,585,585,584,0,0
0,0,0,0,0,0,0,0,0,2211,2206,2216,2225,2225,2221,2225,2230,2240,2250,2250,2255,2260,2265,2280,2285,2285,2290,2285,2270,0,0,0,0,0,0,0,0,0,0,0,0,922,922,920,919,918,918,919,924,929,929,0,0,0,0,0,0,0,0,0,1399,1388,1382,1380,1384,1384,1390,1391,1390,1393,1397,1401,1407,1417,1422,1424,1424,1422,1420,1417,1413,1411,1407,1403,1403,1401,1407,1407,1407,1409,1409,1409,1413,1415,1417,1422,1424,1430,1436,1438,1443,1441,1434,1428,1418,1411,1409,1411,1411,1411,1409,1405,1405,1405,1405,1405,1409,1411,1407,1395,1373,1365,1364,1360,1362,1360,1364,1367,1367,1371,1373,1376,1386,1395,1401,1409,1417,1426,1432,1443,1459,1465,1480,1493,1500,0,0,4170,4170,4187,4187,4204,4204,4204,0,0,0,0,0,0,0,0,0,0,0,0,0,0,0,0,0,0,753,752,749,746,744,743,741,740,739,738,738,738,738,739,739,740,741,742,744,0,0,0,0,0,0,0,0,0,0,787,788,788,788,788,787,787,789,790,791,791,790,0,0,0,0,0,0,0,0,703,698,0,0,0,0,0,0,0,673,0,0,0,0,651,651,649,648,646,644,642,641,640,639,638,636,635,634,632,629,628,626,625,624,624,624,624,623,622,622,621,621,620,618,617,616,615,615,612,611,611,610,0,609,608,607,605,605,604,603,603,602,601,600,599,599,599,599,599,599,598,598,597,597,596,596,595,594,594,593,592,591,590,590,591,590,590,590,589,588,587,587,585,585,584,584,0,0,0
0,0,0,0,0,0,0,0,0,2221,2216,2225,2225,2221,2216,2221,2230,2235,2250,2250,2260,2270,2275,2280,2290,2290,2301,2295,2280,0,0,0,0,0,0,0,0,0,0,0,0,922,921,920,920,920,921,923,926,928,930,932,0,0,0,0,0,0,0,0,1407,1395,1386,1384,1388,1390,1393,1395,1393,1395,1399,1405,1413,1420,1424,1424,1424,1424,1420,1418,1413,1413,1407,1405,1403,1401,1405,1407,1405,1407,1407,1407,1413,1415,1418,1424,1428,1434,1438,1441,1445,1441,1434,1426,1418,1411,1411,1411,1411,1407,1409,1407,1405,1405,1405,1405,1407,1407,1403,1386,1371,1365,1364,1360,1362,1362,1365,1369,1369,1373,1375,1378,1388,1397,1401,1411,1418,1426,1432,1443,1457,1463,1480,1498,1502,1506,0,4170,4170,4204,4187,4187,4187,4187,0,0,0,0,0,0,0,0,0,0,0,0,0,0,0,0,0,0,753,752,749,746,744,743,742,741,740,739,738,738,739,739,740,740,741,743,745,0,0,0,0,0,0,0,0,0,0,0,788,788,789,790,790,791,792,793,793,793,792,0,0,0,0,0,0,0,0,0,0,0,0,0,681,678,676,673,670,0,0,0,651,649,649,648,647,644,642,641,640,639,638,637,636,635,634,633,630,629,627,626,625,626,627,628,629,628,626,624,622,622,621,619,617,617,616,615,0,613,611,611,610,609,609,608,608,607,605,604,603,603,601,600,600,600,600,600,599,598,598,598,597,597,596,595,594,594,593,592,592,590,590,590,589,589,589,588,587,587,586,585,584,584,584,0,0,0
0,0,0,0,0,0,0,0,0,2225,2216,2225,2225,2221,2221,2225,2230,2235,2245,2250,2260,2270,2280,2295,2301,2306,2306,2295,2280,2280,0,0,0,0,0,0,0,0,0,0,0,0,921,920,920,921,922,924,927,927,930,933,0,0,0,0,0,0,0,1418,1407,1397,1390,1388,1391,1393,1395,1397,1393,1397,1403,1413,1418,1424,1426,1426,1424,1424,1422,1418,1415,1413,1409,1409,1407,0,0,1407,0,1409,1407,1407,1413,1417,0,0,1438,1443,1445,1445,1445,0,1432,1424,1415,1413,1411,1409,1411,1405,1409,1407,1405,1405,1405,1403,1405,1403,1395,1378,1371,1365,1364,1362,1364,1364,1369,1373,1373,1375,1376,1380,1390,1399,1405,1413,1420,1426,1434,1443,1457,1465,1482,1500,1506,1509,0,4170,4153,4187,4170,4187,4187,4187,0,0,0,0,0,0,0,0,0,0,0,0,0,0,0,0,0,0,0,752,749,746,745,743,743,741,740,739,739,739,739,740,740,741,742,743,745,0,0,0,0,0,0,0,0,0,0,0,0,0,790,791,792,793,794,795,795,794,0,0,0,0,0,0,0,0,687,688,687,683,682,680,677,676,673,669,667,665,0,0,0,648,647,647,646,643,641,640,639,638,637,636,636,635,634,633,631,630,629,627,627,628,629,630,630,630,628,627,626,624,623,622,622,621,619,0,0,615,0,0,613,611,610,610,610,610,609,608,606,604,603,603,603,602,602,602,601,600,599,599,598,598,597,595,594,594,593,593,592,591,591,590,589,589,589,588,587,586,585,584,584,584,584,0,0,0
0,0,0,0,0,0,0,0,0,2230,2221,2225,2225,2221,2221,2225,2225,2225,2240,2245,2260,2270,2280,2285,2295,2306,2311,2301,2295,2301,0,0,0,0,0,0,0,0,0,0,0,0,921,919,921,922,923,924,926,927,931,933,934,0,0,0,0,0,1428,1422,1409,1399,1393,1391,1397,1397,1397,1399,1393,1397,1409,1420,1422,0,0,0,0,0,0,0,0,0,0,0,0,0,0,0,0,0,0,0,0,0,0,0,0,0,0,0,0,0,0,0,1420,1418,1413,1411,1409,1403,1405,1405,1401,1403,1403,1403,1405,1403,1393,1378,1371,1365,1364,1362,1365,1365,1369,1371,1371,1375,1378,1384,1393,1399,1405,1411,1417,1428,1436,1445,1459,1465,1478,1500,1504,1513,0,4170,4170,4204,4187,4204,4204,4170,0,0,0,0,0,0,0,0,0,0,0,0,0,0,0,0,0,0,0,0,749,747,745,744,743,741,740,740,740,740,739,740,740,741,743,744,0,0,0,0,0,0,0,0,0,0,0,0,0,0,792,793,794,795,797,799,799,798,0,0,0,0,694,692,0,687,685,684,683,682,680,678,676,0,671,665,662,0,0,0,647,646,646,645,643,642,640,639,638,637,636,636,636,635,634,633,632,631,630,629,629,630,632,633,633,633,630,629,628,626,625,624,623,622,621,620,619,617,0,0,0,0,610,610,610,610,609,608,607,0,0,0,604,603,0,604,603,602,601,600,599,598,598,597,596,596,594,593,593,592,591,590,589,589,589,588,587,587,585,584,584,583,583,582,0,0
0,0,0,0,0,0,0,0,0,2225,2216,2221,2216,2216,2216,2221,2221,2225,2235,2245,2265,2275,2285,2290,2290,2306,2306,2306,2306,2311,2306,0,0,0,0,0,0,0,0,0,0,0,922,920,922,922,924,923,925,927,930,933,933,937,0,0,0,0,0,1422,1409,0,1395,1391,1397,1399,0,0,0,0,0,0,0,0,0,0,0,0,1223,1219,1214,0,0,0,0,0,1220,1220,1225,0,0,0,0,1230,1230,1230,1232,1233,0,0,0,0,1252,1255,0,0,0,0,0,0,1395,0,1395,1399,1401,1403,1405,1401,1391,1376,1371,1365,1362,1362,1365,1367,1371,1373,1373,1378,1380,1386,1395,1399,1405,1411,1417,1430,1438,1447,1459,1467,1480,1500,1506,1518,0,4153,4153,4204,4170,4204,4187,0,0,0,0,0,0,0,0,0,0,0,0,0,0,0,0,0,0,0,0,0,750,747,746,744,743,742,741,741,740,740,740,740,740,741,743,745,0,0,0,0,0,0,0,0,0,0,0,0,0,0,0,797,798,799,800,801,801,0,0,0,695,694,693,691,688,686,683,682,682,681,679,677,675,673,0,0,0,0,0,646,646,645,644,644,642,641,640,638,638,637,636,636,635,635,634,634,634,633,632,631,631,633,634,634,634,633,631,629,628,626,625,624,623,622,621,620,618,617,0,0,0,0,609,609,609,609,608,0,606,0,0,0,604,604,604,604,604,603,603,602,601,600,599,598,597,597,596,595,594,593,592,590,589,589,589,589,0,587,586,585,585,584,583,583,0,0
0,0,0,0,0,0,0,0,0,2221,2197,2206,2201,2206,2211,2216,2221,2225,2235,2250,2270,2275,2280,2290,2285,2301,2301,2301,2306,2311,0,0,0,0,0,0,0,0,0,0,0,923,922,921,922,922,923,923,926,927,929,933,933,937,0,0,0,0,0,0,0,0,0,0,0,0,0,0,0,0,0,0,0,0,0,0,0,1222,1220,0,0,0,0,0,1219,1220,1220,1222,1225,1225,1227,1230,1230,1232,1230,1232,1233,1235,1236,1238,1241,1242,1247,1250,1250,0,1252,1248,0,0,0,0,0,1395,1399,1403,1403,1399,1390,1378,1371,1365,1362,1362,1365,1367,1371,1375,1373,1378,1382,1388,1397,1399,1407,1413,1417,1430,1438,1447,1459,1470,1480,1500,0,0,0,4119,4153,4187,4187,4204,4204,4187,0,0,0,0,0,0,0,0,0,0,0,0,0,0,0,0,0,0,0,0,751,748,746,745,744,743,742,741,741,741,740,741,741,743,744,745,745,0,0,0,0,0,0,0,0,0,0,0,0,0,0,0,0,0,0,0,0,0,0,695,693,692,691,689,687,683,682,681,680,679,678,676,673,0,0,0,653,651,647,646,645,645,644,643,642,640,640,638,638,638,637,636,636,635,635,635,634,634,633,634,634,634,635,635,634,632,629,628,627,625,624,622,622,0,0,0,0,0,0,0,0,0,604,605,606,607,606,0,0,0,0,0,0,0,0,0,0,604,603,602,601,600,600,599,599,598,597,596,595,594,593,593,592,592,591,591,0,0,0,587,587,586,584,584,0,0
0,0,0,0,0,0,0,0,0,2201,2192,2192,2192,2201,2211,2221,2225,2230,2240,2255,2270,2285,2280,2285,2280,2290,2301,2301,2306,2311,0,0,0,0,0,0,0,0,0,0,0,925,923,922,922,921,921,922,924,927,927,931,933,934,941,0,0,0,0,0,0,0,0,0,0,0,0,0,0,0,0,0,0,0,0,1217,1219,1220,1220,0,1214,1214,0,1217,1219,1220,1222,1223,1225,1225,1225,1227,1230,1232,1232,1233,1235,1235,1236,1238,1239,1242,1245,1248,1247,1250,1253,0,0,0,0,0,0,1393,1397,1405,1405,1401,1395,1380,1371,1365,1364,1362,1365,1365,1369,1373,1373,1376,1380,1386,1395,1399,1407,1415,1420,1432,1441,1449,1461,1474,1484,1500,0,0,0,0,4153,4204,4187,4221,4204,4187,0,0,0,0,0,0,0,0,0,0,0,0,0,0,0,0,0,0,0,0,751,749,747,746,745,743,743,741,741,741,741,741,742,744,744,745,746,0,0,0,0,0,0,0,0,0,0,0,0,0,0,0,0,0,0,0,0,0,0,0,690,690,688,685,683,682,680,679,678,678,677,0,0,657,654,653,651,649,647,646,645,645,644,643,642,641,640,639,638,638,638,638,637,637,636,636,636,635,634,634,634,634,634,634,633,630,0,0,0,0,0,618,0,0,0,0,0,0,0,0,0,604,605,604,0,0,0,0,0,0,0,0,0,0,0,0,0,0,0,603,601,601,600,600,600,599,599,599,598,0,0,594,594,594,594,594,593,0,0,0,0,589,588,0,0,0
0,0,0,0,0,0,0,0,0,2206,2187,2187,2183,2192,2201,2216,2221,2230,2240,2250,2265,2280,2275,2280,2280,2290,2301,2306,2306,2306,0,0,0,0,0,0,0,0,0,0,0,925,923,922,921,921,921,921,925,927,928,931,932,935,942,0,0,0,0,0,0,0,0,0,0,0,0,0,0,0,0,0,0,0,0,1217,1219,1220,1219,1216,1214,1216,1217,1219,1219,1219,1223,1225,1226,1227,1226,1226,1229,1232,1230,1233,1235,1233,1235,1236,1238,1241,1244,1245,1245,1247,1253,1255,0,0,0,0,1391,1395,1399,1403,1403,1401,1395,1380,1371,1365,1362,1360,1365,1367,1371,1373,1375,1378,1384,1388,1395,1399,1407,1417,1424,1432,1438,1451,1463,1472,1482,1500,0,0,0,0,4153,4187,4187,4204,4204,4204,4204,0,0,0,0,0,0,0,0,0,0,0,0,0,0,0,0,0,0,0,752,750,747,746,745,744,743,743,743,742,742,742,743,744,745,745,746,748,0,0,0,0,0,0,0,0,0,0,0,0,0,0,0,0,0,0,0,0,0,690,689,688,685,682,681,680,677,677,677,677,676,0,0,655,653,652,649,649,647,646,645,645,644,643,642,642,641,640,640,640,640,639,639,638,638,638,637,637,636,635,634,633,633,632,630,0,0,0,0,0,618,616,0,0,0,0,0,0,0,0,0,0,0,603,0,0,0,0,566,565,564,563,563,563,0,0,0,0,0,0,0,0,601,601,601,0,600,0,0,0,0,0,597,596,597,597,596,597,595,595,593,592,590,590,0,0
0,0,0,0,0,0,0,0,0,0,2183,2178,2173,2187,2206,2225,2230,2235,2245,2255,0,0,2285,2290,2290,2301,2306,2306,2301,2295,0,0,0,0,0,0,0,0,0,0,0,0,923,922,921,921,922,922,926,927,928,931,933,937,940,0,0,0,0,0,0,0,0,0,0,0,0,0,0,0,0,0,0,0,0,1219,1222,1223,1222,1219,1219,1217,1219,1220,1220,1219,1226,1227,1230,1232,1232,1230,1233,0,1235,1238,1239,1238,1238,0,1241,1242,1244,1247,1247,0,0,0,1399,1393,1397,1393,1397,1399,1401,1405,1403,1399,1390,1378,1371,1365,1364,1362,1365,1367,1373,1373,1375,1378,1386,1388,1395,1401,1409,1417,1426,1432,1441,1453,1463,1472,1482,1498,0,0,0,0,4153,4187,4187,4204,4204,4221,4239,0,0,0,0,0,0,0,0,0,0,0,0,0,0,0,0,0,0,0,752,750,748,747,746,744,744,743,743,743,743,743,744,745,746,746,747,750,0,0,0,0,0,0,0,0,0,0,0,0,0,0,0,0,0,0,0,0,689,688,687,684,682,681,680,678,677,676,675,675,0,0,658,655,653,651,649,649,648,647,646,645,644,644,643,642,642,642,642,642,643,642,641,641,640,640,640,639,637,635,634,633,633,632,0,0,0,0,0,0,0,0,0,0,0,0,0,0,0,0,0,0,0,0,0,0,0,0,564,563,562,562,561,561,561,0,0,0,0,0,0,0,0,0,0,0,0,0,0,0,0,0,598,598,598,598,597,597,596,595,594,593,592,592,0,0
0,0,0,0,0,0,0,0,0,0,2192,2178,0,0,0,0,0,0,2250,0,0,0,0,0,0,0,0,0,0,0,0,0,0,0,0,0,0,0,0,0,0,0,925,923,921,921,922,923,926,927,929,932,934,938,0,0,0,0,0,0,0,0,0,0,0,0,0,0,0,0,0,0,0,0,0,0,0,0,1225,1225,1227,1225,0,0,1222,0,0,0,0,0,0,0,0,1245,1248,1248,1248,1247,1245,1245,1247,1247,1247,0,0,0,1390,1397,1399,1399,1403,1401,1401,1401,1403,1403,1403,1399,1388,1376,1371,1365,1364,1364,1365,1365,1371,1373,1375,1378,1382,1388,1395,1399,1407,1415,1426,1430,1441,1455,1465,1472,1484,1498,0,0,0,0,0,4204,4187,4187,4187,4221,4221,0,0,0,0,0,0,0,0,0,0,0,0,0,0,0,0,0,0,0,753,751,748,747,746,745,744,744,743,743,743,743,744,745,746,747,749,751,0,0,0,0,0,0,0,0,0,0,0,0,0,0,0,0,0,0,0,688,688,687,685,682,681,680,678,677,676,675,674,672,0,660,658,655,654,652,650,649,649,648,647,646,645,644,644,644,644,645,647,648,648,647,646,643,642,641,640,640,637,635,0,0,0,0,0,0,0,0,0,0,0,0,0,569,570,570,569,568,567,566,566,566,564,563,0,562,563,562,563,562,561,560,558,558,559,557,557,557,558,0,0,0,0,0,0,0,0,0,0,0,0,0,0,0,0,597,595,596,595,594,594,593,592,592,0,0
0,0,0,0,0,0,0,0,0,0,0,0,0,0,0,0,0,0,0,0,0,0,0,0,0,0,0,0,0,0,0,0,0,0,0,0,0,0,0,0,0,0,926,924,922,923,924,925,927,927,931,933,934,938,0,0,1449,0,0,0,0,0,0,0,0,0,0,0,0,0,0,0,0,0,0,0,0,1227,1229,1230,1232,1229,0,0,0,0,0,0,0,0,0,0,1241,1244,1244,1244,1247,1245,1247,1256,1258,1261,0,0,0,1373,1376,1386,1395,1397,1403,1405,1405,1403,1405,1403,1401,1397,1384,1375,1371,1365,1364,1364,1365,1369,1371,1371,1375,1376,1380,1386,1393,1399,1407,1413,1424,1430,1438,1455,1463,1472,1484,1498,1513,0,0,0,4153,4187,4187,4187,4204,4204,4187,4221,0,0,0,0,0,0,0,0,0,0,0,0,0,0,0,0,0,0,0,751,747,746,745,744,744,744,744,744,744,744,744,745,747,747,750,752,0,0,0,0,0,0,0,0,0,0,0,0,0,0,0,0,0,0,0,688,688,686,683,682,680,678,677,675,674,673,671,669,666,660,657,655,654,652,651,650,649,649,648,648,647,647,647,647,648,649,650,649,649,648,647,644,641,640,639,638,636,0,0,0,0,0,0,0,0,0,0,0,0,0,571,569,568,568,568,567,566,565,565,563,563,562,561,561,561,0,0,0,0,557,0,0,0,0,0,555,554,0,0,0,0,0,0,0,0,0,0,0,0,0,0,0,0,0,0,595,595,594,593,592,591,591,0,0
0,0,0,0,0,0,0,0,0,0,0,0,0,0,0,0,0,0,0,0,0,0,0,0,0,0,0,0,0,0,0,0,0,0,0,0,0,0,0,0,0,0,926,925,923,925,925,925,927,928,931,934,935,939,0,0,1451,0,0,0,0,0,0,0,0,0,0,0,0,0,0,0,0,0,0,0,0,1232,1233,1233,1235,1232,0,0,0,0,1244,1242,1242,1241,1241,1239,1241,1245,1244,1245,1250,1248,0,1259,1262,0,0,1362,1364,1365,1371,1373,1378,1390,1397,1399,1403,1403,1405,1403,1401,1397,1384,1373,1369,1365,1364,1365,1365,1367,1371,1371,1375,1376,1380,1388,1395,1401,1407,1415,1422,1428,1438,1455,1463,1472,1489,1498,1513,0,0,4170,4170,4204,4187,4187,4187,4187,4187,4239,0,0,0,0,0,0,0,0,0,0,0,0,0,0,0,0,0,0,0,751,747,746,746,745,744,744,744,744,744,744,745,746,747,748,750,0,0,0,0,0,0,0,0,0,0,0,0,0,0,0,0,0,0,0,0,687,686,685,683,681,679,677,676,674,673,671,669,667,663,660,657,655,654,653,652,651,651,651,650,649,648,648,649,651,653,654,653,651,650,648,646,642,640,640,639,0,0,0,0,0,0,0,0,0,0,0,0,0,0,571,570,568,567,567,567,566,564,563,562,561,560,559,558,558,0,0,0,0,0,0,0,0,0,0,0,0,0,0,0,0,0,0,0,0,0,0,0,0,0,0,0,0,0,0,0,0,0,0,0,591,590,590,0,0
0,0,0,0,0,0,0,0,0,0,0,0,0,0,0,0,0,0,0,0,0,0,0,0,0,0,0,0,0,0,0,0,0,0,0,0,0,0,0,0,0,927,927,927,926,926,925,925,927,928,932,934,935,939,0,0,1455,1451,0,0,0,0,0,0,0,0,0,0,0,0,1384,1382,1382,1384,1384,1380,0,0,1233,1233,1233,1230,1236,1241,1241,1241,1242,1241,1241,1239,1241,1241,1241,1244,1244,1245,1252,1253,1256,1262,1264,0,0,1360,1360,1364,1367,1369,1373,1380,1388,1395,1399,1401,1403,1403,1401,1397,1386,1375,1369,1367,1364,1364,1364,1365,1367,1369,1371,1373,1378,1386,1393,1401,1407,1415,1420,1430,1441,1459,1465,1474,1489,1500,1511,0,0,4170,4187,4204,4204,4204,4204,4187,4187,4221,0,0,0,0,0,0,0,0,0,0,0,0,0,0,0,0,0,0,0,752,748,746,746,744,744,744,744,744,744,744,745,746,747,748,750,0,0,0,0,0,0,0,0,0,0,0,0,0,0,0,0,0,0,0,688,686,685,683,682,680,677,676,675,673,671,669,668,666,662,660,657,656,655,654,653,653,653,652,652,652,651,0,0,655,655,654,653,651,649,647,643,641,639,0,0,0,0,0,0,0,0,0,0,0,0,0,0,571,570,569,568,566,566,564,563,562,561,560,558,557,557,557,555,0,0,0,0,0,0,0,0,0,0,0,0,0,0,0,0,0,0,0,0,0,0,0,0,0,0,0,0,0,0,0,0,0,0,0,0,0,0,589,0,0
0,0,0,0,0,0,0,0,0,0,0,0,0,0,0,0,0,0,0,0,0,0,0,0,0,0,0,0,0,0,0,0,0,0,0,0,0,0,0,0,0,927,927,927,927,927,927,926,927,928,932,935,936,0,0,1453,1451,1445,0,0,0,0,0,0,0,0,0,0,0,1390,1388,1386,1386,1384,1384,1384,1382,0,0,0,0,0,1239,1239,1241,1241,1241,1238,1238,1238,1238,1239,1242,1244,1247,1248,1255,1255,1259,1264,0,0,1349,1353,1356,1360,1364,1365,1367,1371,1375,1378,1390,1393,1397,1399,1397,1395,1384,1373,1369,1367,1364,1364,1364,1365,1365,1369,1373,1373,1376,1382,1390,1401,1407,1413,1422,1432,1441,1457,1465,1472,1489,1500,1511,1520,0,4187,4187,4204,4204,4204,4204,4187,4187,4204,0,0,0,0,0,0,0,0,0,0,0,0,0,0,0,0,0,0,0,751,748,747,746,744,744,744,744,744,744,744,745,746,747,748,750,0,0,0,0,0,0,0,0,0,0,0,0,0,0,0,0,0,0,0,688,685,684,683,681,679,677,676,674,672,670,668,666,664,662,660,658,657,656,655,655,654,654,654,654,654,0,0,659,659,657,655,653,650,648,646,642,0,0,0,0,0,0,0,0,0,0,0,573,573,573,572,571,571,568,567,566,565,563,562,561,559,557,557,556,555,554,0,552,0,0,0,0,0,0,0,0,0,0,0,0,0,0,0,0,0,0,0,0,0,0,0,0,0,0,0,0,0,0,0,0,0,0,0,0,0,0,0,0,0
0,0,0,0,0,0,0,0,0,0,0,0,0,0,0,0,0,0,0,0,0,0,0,0,0,0,0,0,0,0,0,0,0,0,0,0,0,0,0,0,0,0,927,927,927,927,926,924,925,927,932,935,937,940,0,1463,1455,1447,1438,0,0,0,0,0,0,0,0,0,1397,1393,1390,1388,1388,1386,1386,1382,1378,1369,0,0,0,0,1252,1242,1242,1242,1241,1239,1239,1239,1239,1239,1241,1244,1245,1253,1258,0,1264,0,0,1347,1349,1353,1354,1358,1360,1362,1364,1367,1369,1371,1375,1380,1390,1395,1395,1393,1382,1373,1369,1367,1362,1364,1364,1364,1365,1367,1371,1373,1380,1386,1391,1401,1407,1413,1422,1432,1441,1457,1465,1474,1489,1502,1511,1522,0,4187,4187,4187,4204,4204,4204,4204,4187,4187,0,0,0,0,0,0,0,0,0,0,0,0,0,0,0,0,0,0,0,752,750,748,747,745,744,744,744,744,745,745,745,746,747,748,750,0,0,0,0,0,0,0,0,0,0,0,0,0,0,0,0,0,0,0,687,685,684,683,681,678,676,675,673,671,669,667,666,664,662,661,660,659,657,657,656,656,656,655,656,0,0,661,661,660,657,654,651,649,647,0,0,0,0,0,0,0,0,0,0,0,0,576,574,573,572,570,570,568,567,566,564,563,562,560,558,557,555,553,553,0,0,0,0,0,0,0,0,0,0,0,0,0,0,0,0,0,0,0,0,0,0,0,0,0,0,0,0,0,0,0,0,0,0,0,0,0,0,0,0,0,0,0,0,0
0,0,0,0,0,0,0,0,0,0,0,0,0,0,0,0,0,0,0,0,0,0,0,0,0,0,0,0,0,0,0,0,0,0,0,0,0,0,0,0,0,0,927,927,927,927,926,925,925,926,930,935,937,939,0,1465,1457,1443,1436,1430,1424,1418,1411,1407,1405,1399,1399,1397,1395,1391,1390,1388,1388,1386,1384,1382,1378,1371,0,1308,1299,1288,1261,1245,1242,1242,1241,1241,1241,1241,1239,1241,1242,1245,0,0,1261,1259,1269,0,1339,1346,1347,1351,1351,1354,1356,1360,1362,1364,1365,1365,1369,1373,1378,1386,1393,1391,1384,1376,1373,1369,1365,1365,1365,1365,1367,1369,1371,1371,1376,1382,1391,1399,1405,1413,1426,1434,1443,1457,1465,1472,1487,1502,1506,1513,0,4221,4187,4187,4187,4204,4221,4204,4187,4170,0,0,0,0,0,0,0,0,0,0,0,0,0,0,0,0,0,0,0,753,751,749,747,746,745,745,745,745,745,745,746,746,746,747,0,0,0,0,0,0,0,0,0,0,0,0,0,0,0,0,0,0,0,0,0,685,684,682,681,677,676,674,673,670,668,666,665,664,663,662,661,660,660,659,658,658,659,659,0,0,664,662,660,659,656,653,649,648,0,0,0,0,0,0,0,0,0,0,0,0,0,574,573,572,571,568,568,566,565,564,562,0,0,0,0,0,0,0,0,0,0,0,0,0,0,0,0,0,0,0,0,0,0,0,0,0,0,0,0,0,0,0,0,0,0,0,0,0,0,0,0,0,0,0,0,0,0,0,0,0,0,0,0,0
0,0,0,0,0,0,0,0,0,0,0,0,0,0,0,0,0,0,0,0,0,0,0,0,0,0,0,0,0,0,0,0,0,0,0,0,0,0,0,0,0,0,0,929,928,927,927,925,924,925,929,933,936,939,941,1465,1455,1443,1434,1430,1424,1420,1415,1411,1407,1403,1401,1399,1397,1397,1393,1391,1390,1388,1386,1382,1380,0,0,1306,1301,1289,1269,1248,1242,1242,1242,1242,1242,1242,1241,1242,1244,1247,1250,1259,0,0,0,0,1337,1342,1346,1347,1349,1351,1353,1356,1358,1360,1362,1364,1367,1371,1376,1382,1388,1388,1382,1375,1371,1369,1367,1367,1367,1367,1369,1369,1373,1375,1380,1384,1391,1397,1403,1411,1426,1434,1441,1449,1461,1470,1489,1502,1506,1509,0,4221,4170,4170,4170,4187,4204,4187,4170,4153,0,0,0,0,0,0,0,0,0,0,0,0,0,0,0,0,0,0,0,753,751,749,748,746,746,745,745,745,745,746,746,747,747,749,0,0,0,0,0,0,0,0,0,0,0,0,0,0,0,0,0,0,0,0,687,685,684,682,681,677,676,674,673,670,668,666,665,665,664,663,663,662,662,661,660,660,0,0,669,668,664,660,659,657,654,651,649,0,0,0,0,0,0,0,0,0,0,0,0,0,574,573,571,569,568,567,566,563,562,0,558,553,0,0,0,0,0,0,0,0,0,0,534,535,534,0,0,0,0,0,0,0,0,0,0,0,0,0,0,0,0,0,0,0,0,0,0,0,0,0,0,0,0,0,0,0,0,0,0,0,0,0,0,0
0,0,0,0,0,0,0,0,0,0,0,0,0,0,0,0,0,0,0,0,0,0,0,0,0,0,0,0,0,0,0,0,0,0,0,0,0,0,0,0,0,0,0,929,927,927,927,925,925,927,930,934,936,939,942,0,1457,1441,1434,1428,1424,1420,1415,1411,1411,1405,1403,1401,1397,1397,1395,1393,1393,1390,1386,1382,0,0,1311,1304,1298,1291,1270,1248,1242,1242,1242,1245,1244,1242,1244,1242,1245,1247,0,0,0,0,0,1330,1337,1340,1344,1346,1347,1349,1351,1354,1354,1358,1360,1364,1367,1373,1375,1380,1386,1388,1384,1378,1375,1371,1369,1369,1369,1371,1373,1373,1375,1376,1382,1386,1393,1399,1405,1417,1426,1432,1438,1447,1461,1467,1489,1504,1504,1504,0,0,4153,4153,4170,4187,4204,4187,4170,0,0,0,0,0,0,0,0,0,0,0,0,0,0,0,0,0,0,0,0,753,752,750,749,747,747,746,746,746,745,746,747,747,748,750,0,0,0,0,0,0,0,0,0,0,0,0,0,0,0,0,0,0,0,0,687,685,684,682,681,678,677,675,673,670,669,668,667,666,666,666,666,665,664,664,0,0,671,671,669,668,662,659,657,655,653,650,0,0,0,0,0,0,0,0,0,0,0,0,576,574,573,572,569,568,566,564,563,561,560,0,0,551,548,547,545,543,542,540,0,0,0,534,533,532,530,0,0,0,0,0,0,0,0,0,0,0,0,0,0,0,0,0,0,0,0,0,0,0,0,0,0,0,0,0,0,0,0,0,0,0,0,0,0,0
0,0,0,0,0,0,0,0,0,0,0,0,0,0,0,0,0,0,0,0,0,0,0,0,0,0,0,0,0,0,0,0,0,0,0,0,0,0,0,0,0,0,929,930,928,928,927,927,927,928,930,933,935,939,944,0,0,1434,1428,1424,1420,1418,1417,1415,1413,1409,1407,1403,1399,1399,1397,1395,1395,1391,1386,0,0,1308,1303,1296,1293,1291,1270,1253,1244,1241,1241,1242,1242,1244,1245,1244,1247,1248,1253,1258,1259,1266,0,1321,1332,1333,1337,1342,1344,1347,1349,1351,1351,1354,1360,1364,1367,1371,1375,1378,1384,1390,1388,1382,1376,1371,1371,1369,1369,1373,1373,1375,1375,1376,1380,1388,1395,1401,1407,1418,1426,1434,1441,1447,1461,1465,1480,1500,1502,0,0,0,0,4153,4153,4170,4204,4187,4187,4170,0,0,0,0,0,0,0,0,0,0,0,0,0,0,0,0,0,0,0,754,752,751,749,749,748,746,746,746,746,747,747,749,750,0,0,0,0,0,0,0,0,0,0,0,0,0,0,0,0,0,0,0,0,0,688,687,684,683,682,679,678,677,674,672,670,669,668,668,668,667,667,667,0,0,0,0,673,671,669,666,660,658,656,654,653,0,0,0,0,0,0,0,0,0,0,0,582,579,577,573,571,570,567,566,562,561,560,558,556,554,552,549,547,545,543,542,540,538,537,535,534,532,530,528,0,0,0,0,0,0,0,0,0,0,0,0,0,0,0,0,0,0,0,0,0,0,0,0,0,0,0,0,0,0,0,0,0,0,0,0,0,0,0,0
0,0,0,0,0,0,0,0,0,0,0,0,0,0,0,0,0,0,0,0,0,0,0,0,0,0,0,0,0,0,0,0,0,0,0,0,0,0,0,0,0,0,932,932,930,929,928,927,927,928,930,932,934,939,944,945,0,0,1426,1422,1417,1415,1417,1415,1417,1415,1413,1407,1401,1403,1401,1399,1397,1391,0,0,0,1303,1299,1294,1291,1289,1275,1258,1244,1241,1241,1242,1241,1242,1244,1244,1247,1248,1253,1258,1259,1266,1283,1318,1321,1325,1328,1333,1337,1340,1346,1351,1351,1353,1358,1362,1365,1371,1373,1376,1382,1388,1384,1380,1375,1371,1373,1371,1371,1373,1373,1375,1376,1376,1380,1386,1395,1399,1407,1420,1430,1436,1445,1447,1459,1465,1478,1498,1502,0,0,0,0,4136,4153,4170,4204,4204,4204,4204,0,0,0,0,0,0,0,0,0,0,0,0,0,0,0,0,0,0,0,0,752,752,750,749,749,747,747,746,746,747,748,750,751,752,0,0,0,0,0,0,0,0,0,0,0,0,0,0,0,0,0,0,0,0,686,685,684,683,682,681,680,678,677,675,673,673,671,671,671,669,669,0,0,0,677,674,673,670,667,662,660,658,656,654,0,0,0,0,0,0,0,0,0,0,584,583,581,578,576,573,570,568,566,562,561,559,558,557,554,553,550,547,545,543,541,539,538,536,534,533,530,0,528,526,0,0,0,0,0,0,0,0,0,0,0,0,0,0,0,0,0,0,0,0,0,0,0,0,0,0,0,0,0,0,0,0,0,0,0,0,0,0,0,0
0,0,0,0,0,0,0,0,0,0,0,0,0,0,0,0,0,0,0,0,0,0,0,0,0,0,0,0,0,0,0,0,0,0,0,0,0,0,0,0,0,0,0,932,929,929,929,928,928,929,931,932,933,938,943,945,945,0,0,1405,1399,1405,1409,1411,1415,1415,1413,1407,1401,1403,1399,1399,1399,1391,0,0,1298,1296,1294,1289,1286,1286,1272,1256,1242,1242,1239,1238,1239,1242,1244,1245,1248,1248,1253,1258,1259,1264,1278,0,1321,1323,1325,1326,1330,1337,1342,1349,1349,1353,1354,1358,1364,1369,1373,1375,1380,1386,1386,1382,1378,1373,1371,1371,1369,1373,1373,1375,1376,1378,1380,1386,1395,1403,1413,1424,1428,1436,1443,1447,1459,1463,1476,1498,1502,0,0,0,0,4136,4153,4170,4204,4204,4221,4221,0,0,0,0,0,0,0,0,0,0,0,0,0,0,0,0,0,0,0,0,753,752,750,749,749,748,747,747,747,747,748,750,751,0,0,0,0,0,0,0,0,0,0,0,0,0,0,0,0,0,0,0,0,0,685,684,684,683,683,682,681,680,679,677,676,676,675,675,675,674,0,0,681,680,677,675,671,668,666,662,659,657,656,654,0,0,0,0,0,0,0,0,0,586,584,583,581,578,574,571,568,566,563,561,560,558,557,554,553,552,548,546,544,542,539,538,535,533,532,0,528,0,0,0,0,0,0,0,0,0,0,0,0,0,0,0,0,0,0,0,0,0,0,0,0,0,0,0,0,0,0,0,0,0,0,0,0,0,0,0,0,0,0,0
0,0,0,0,0,0,0,0,0,0,0,0,0,0,0,0,0,0,0,0,0,0,0,0,0,0,0,0,0,0,0,0,0,0,0,0,0,0,0,0,0,0,0,930,927,928,928,929,929,930,932,932,933,936,941,944,945,946,1395,1395,1391,1393,1401,1405,1411,1411,1409,1405,1399,1399,1397,1395,1395,1386,0,1299,1296,1293,1291,1286,1283,1283,1277,1269,1248,1242,1241,1238,1241,1242,1245,1248,1248,1248,1253,1255,1258,1267,1278,0,1321,1325,1326,1328,1332,1333,1342,1347,1349,1353,1353,1354,1358,1365,1371,1376,1378,1384,1382,1380,1376,1373,1373,1371,1371,1369,1369,1371,1371,1375,1378,1382,1395,1403,1413,1424,1428,1436,1443,1449,1461,1465,1474,1491,1500,0,0,0,0,4136,4136,4187,4221,4221,4221,4221,0,0,0,0,0,0,0,0,0,0,0,0,0,0,0,0,0,0,0,0,753,752,751,750,749,748,748,747,747,748,748,750,752,0,0,0,0,0,0,0,0,0,0,0,0,0,0,0,0,0,0,0,0,0,0,0,685,685,686,684,683,682,682,680,679,678,678,677,678,679,0,0,0,681,677,673,669,667,665,662,659,657,655,0,0,0,0,0,0,0,0,0,587,586,584,582,580,578,0,568,566,565,562,561,559,557,555,552,552,550,0,0,541,538,535,533,532,531,0,526,525,0,0,0,0,0,0,0,0,0,0,0,0,0,0,0,0,0,0,0,0,0,0,0,0,0,0,0,0,0,0,0,0,0,0,0,0,0,0,0,0,0,0,0
0,0,0,0,0,0,0,0,0,0,0,0,0,0,0,0,0,0,0,0,0,0,0,0,0,0,0,0,0,0,0,0,0,0,0,0,0,0,0,0,0,0,0,0,928,930,929,929,930,931,933,932,934,935,940,944,945,0,1384,1384,1384,1382,1378,1390,1401,1405,1405,1401,1395,1395,1393,1390,1386,0,0,1299,1294,1291,1289,1286,1283,1280,1278,1267,1255,1250,1245,1241,1244,1244,1244,1248,1248,1253,1259,1259,1261,1267,1278,1311,1319,1321,1325,1326,1330,1330,1339,1344,1347,1351,1353,1353,1356,1362,1367,1373,1376,1380,1378,1376,1376,1375,1375,1376,1375,1371,1371,1371,1371,1373,1378,1384,1393,1401,1411,1418,1426,1434,1441,1449,1461,1465,1474,1491,1498,0,0,0,0,4153,4153,4170,4221,4221,4221,4221,0,0,0,0,0,0,0,0,0,0,0,0,0,0,0,0,0,0,0,0,0,752,750,750,749,748,748,747,747,749,749,751,752,754,0,0,0,0,0,0,0,0,0,0,0,0,0,0,0,0,0,734,731,0,0,0,0,687,689,687,686,685,683,682,681,681,681,681,682,0,0,0,0,680,676,672,669,666,665,662,660,0,0,0,0,0,0,0,0,0,590,589,588,586,584,582,0,0,0,567,565,562,561,559,558,556,554,551,0,0,0,0,537,534,533,531,0,0,525,524,523,0,0,0,0,0,0,0,0,0,0,0,0,0,0,0,0,0,0,0,0,0,0,0,0,0,0,0,0,0,0,0,0,0,0,0,0,0,0,0,0,0,0,0
0,0,0,0,0,0,0,0,0,0,0,0,0,0,0,0,0,0,0,0,0,0,0,0,0,0,0,0,0,0,0,0,0,0,0,0,0,0,0,0,0,0,0,0,929,930,930,930,930,931,933,932,935,936,939,943,945,945,0,1382,1380,1378,1373,1373,1378,1384,1391,1395,1393,1393,1390,1380,0,0,0,1294,1289,1286,1285,1283,1281,1278,1278,1272,1256,1253,1245,1241,1242,1242,1242,1248,1248,1255,1259,1258,1261,0,1283,1313,1318,1321,1323,1326,1330,1330,1337,1342,1347,1349,1351,1353,1356,1362,1365,1371,1375,1378,1378,1376,1376,1375,0,1376,1375,1373,1371,1371,1371,1373,1376,1384,1395,1403,1411,1417,1424,1432,1438,1449,1459,1465,1474,1491,1498,0,0,0,0,4153,4170,4187,4221,4221,4187,4204,0,0,0,0,0,0,0,0,0,0,0,0,0,0,0,0,0,0,0,0,0,751,750,749,748,747,747,747,747,748,749,752,752,0,0,0,0,0,0,0,0,0,0,0,0,0,0,0,0,0,736,736,733,731,0,0,0,0,690,689,688,687,686,684,683,682,684,684,688,689,0,0,681,677,675,670,668,666,665,662,0,0,0,0,0,0,0,0,0,0,591,590,588,587,584,583,0,0,566,565,563,561,560,558,557,554,552,548,0,0,0,0,535,533,531,529,0,0,0,0,0,0,0,0,0,0,0,0,0,0,0,0,0,0,0,0,0,0,0,0,0,0,0,0,0,0,0,0,0,0,0,0,0,0,0,0,0,0,0,0,0,0,0,0
