0,0,0,0,0,0,0,0,0,2398,2392,2392,2392,2392,2387,2392,2392,2398,2398,2398,2398,2392,2364,0,0,2039,2035,2035,2035,2039,2035,2035,2031,0,0,0,2415,2426,2438,2438,2432,2432,2426,2432,2432,2432,2432,2432,2438,2444,2438,2444,2450,2455,2450,2450,2450,2450,2455,2455,2455,2455,2455,2455,2455,2461,2461,2461,2467,2461,2467,2461,2467,2461,2455,2461,2461,2461,2461,2467,2467,2473,2479,2485,2497,2504,2504,2504,2504,2510,2510,2510,2516,2516,2516,2516,2522,2522,2522,2522,2522,2522,2522,2528,2528,2528,2528,2535,2541,2547,2541,2535,2535,2528,2528,2528,2528,2535,2535,2541,2547,2554,2554,2554,2554,2554,2567,2554,2554,2560,2554,2560,2560,2567,2560,2560,2567,2567,2567,2573,2567,2573,2579,2579,2586,2593,2593,2599,2593,2599,2599,2606,2606,2606,2599,2593,2599,2599,2599,2599,2606,2612,2619,2619,2626,2626,2626,2633,2633,2633,2633,2633,2626,2626,2633,2639,2639,2639,2646,2646,2646,2646,2646,2646,2653,2653,2653,2653,2653,2660,2660,2653,2653,2660,2674,0,3095,3114,3114,3114,3105,3086,3068,3013,2987,2969,2944,2927,2910,2902,2877,2861,2845,2845,2845,2853,2861,2869,2877,2886,2894,2894,2894,2894,2886,2894,2902,2902,2910,2919,2935,2952,2935,0,0,0,0,1758,1752,1737,1722,1708,1705,1705,1705,1705,1702,1702,1699,1697,1697,1694,1697,1697,1697,1699,1702,1708,1746,1752,1758,1761,1764,1764,1770,0,2579,2554,2554,2541,2528,2516,2491,2479,2467,2455,2438,2421,2409,2415,2409,2403,0,0,0,0,0,0,0,0,0,0,0,0,0,0,0,753,752,748,746,745,743,740,738,737,736,735,733,731,730,730,730,729,728,728,725,723,0,0
0,0,0,0,0,0,0,0,0,2398,2387,2392,2392,2387,2387,2392,2392,2392,2398,2398,2398,2403,2398,0,0,2039,2039,2035,2039,2039,2039,2035,2035,2027,2023,0,0,2426,2444,2444,2444,2438,2432,2432,2432,2432,2432,2432,2438,2444,2444,2450,2455,2455,2455,2444,2444,2444,2450,2455,2455,2455,2455,2461,2461,2461,2461,2467,2467,2467,2473,2467,2467,2467,2461,2467,2467,2461,2467,2467,2473,2479,2491,2497,2504,2504,2504,2504,2504,2504,2510,2510,2516,2510,2510,2516,2522,2528,2528,2528,2528,2528,2522,2522,2528,2535,2535,2535,2535,2528,2528,2528,2528,2528,2535,2535,2535,2541,2541,2547,2554,2554,2547,2547,2547,2547,2560,2560,2560,2560,2554,2560,2567,2567,2560,2560,2567,2567,2573,2567,2567,2573,2573,2579,2593,2593,2599,2599,2599,2606,2606,2612,2612,2606,2599,2593,2593,2599,2599,2606,2612,2612,2619,2626,2626,2626,2626,2633,2633,2633,2633,2633,2633,2633,2633,2639,2639,2639,2646,2653,2646,2653,2646,2646,2653,2653,2660,2660,2660,2660,2653,2646,2646,2653,0,0,0,3124,3124,3124,3114,3086,3068,3022,2987,2978,2952,2935,2910,2886,2869,2853,2853,2845,2845,2853,2869,2869,2877,2886,2894,2894,2902,2902,2894,2894,2902,2910,2919,2927,2935,2952,0,0,0,0,1755,1752,1743,1719,1708,1702,1699,1702,1699,1699,1699,1699,1697,1697,1697,1694,1697,1697,1697,1697,1702,1708,1740,1752,1755,1761,1761,1764,1767,1767,1767,0,2554,2547,2535,2516,2497,2479,2473,2455,2432,2421,2415,2415,2415,0,0,0,0,0,0,0,0,0,0,0,0,0,0,0,755,753,751,747,745,743,741,739,737,736,735,733,732,731,730,729,730,729,728,727,724,723,0,0
0,0,0,0,0,0,0,0,0,2403,2392,2392,2392,2392,2387,2398,2392,2392,2392,2392,2398,2403,0,0,0,2031,2039,2035,2035,2039,2039,2035,2035,2031,2031,2023,0,0,0,0,0,2467,2450,2432,2432,2432,2432,2438,2438,2444,2444,2450,2450,2455,2455,2444,2450,2450,2450,2455,2455,2455,2455,2455,2455,2461,2461,2461,2467,2467,2473,2467,2467,2467,2467,2473,2467,2467,2473,2473,2473,2485,2491,2497,2504,2504,2504,2504,2510,2510,2516,2516,2516,2516,2516,2516,2522,2528,2528,2522,2522,2522,2528,2528,2535,2535,2535,2535,2528,2528,2528,2522,2528,2535,2541,2535,2541,2554,2547,2554,2554,2547,2554,2554,2554,2560,2567,2567,2560,2567,2560,2573,2573,2567,2567,2567,2567,2567,2573,2573,2560,2567,2573,2579,2586,2586,2593,2593,2599,2599,2606,2612,2612,2612,2599,2599,2593,2599,2606,2612,2612,2619,2626,2626,2633,2633,2633,2633,2639,2639,2633,2633,2633,2633,2639,2639,2646,2639,2646,2653,2653,2660,2653,2653,2653,2660,2660,2660,2660,2667,2660,2653,2660,2667,2674,0,3124,3133,3143,3143,3124,3095,3077,3040,3004,2987,2969,2935,2910,2886,2869,2861,2861,2853,2853,2861,2869,2869,2886,2894,2894,2902,2894,2894,2894,2894,2902,2910,2919,2927,2935,0,0,0,0,1752,1740,1734,1717,1705,1702,1699,1699,1697,1697,1699,1697,1699,1697,1697,1697,1697,1697,1694,1694,1697,1699,1708,1740,1752,1755,1761,1764,1767,1770,1770,1767,1767,0,0,0,2522,2510,2491,2479,2450,2438,2426,2421,2421,0,0,0,0,0,0,0,0,0,0,0,0,0,0,0,756,753,752,749,746,744,743,741,739,737,736,735,734,732,731,730,729,729,729,728,727,723,723,0,0
0,0,0,0,0,0,0,0,0,2403,2392,2392,2392,2392,2392,2398,2398,2392,2392,2392,2392,2398,0,0,0,2035,2039,2035,2035,2035,2035,2035,2031,2031,2031,2027,2031,2027,2019,2015,1999,0,0,2450,2432,2432,2432,2444,2444,2450,2450,2450,2450,2450,2455,2450,2455,2455,2450,2455,2455,2455,2455,2455,2461,2461,2467,2467,2467,2467,2473,2473,2473,2473,2473,2473,2467,2467,2473,2473,2473,2485,2491,2491,2497,2504,2504,2510,2516,2510,2522,2522,2522,2522,2516,2522,2522,2528,2528,2522,2522,2522,2528,2535,2541,2535,2535,2535,2535,2528,2528,2535,2535,2535,2547,2541,2547,2554,2554,2554,2554,2547,2554,2560,2560,2573,2567,2567,2573,2567,2573,2579,2579,2573,2573,2567,2567,2567,2567,2567,2567,2567,2573,2579,2586,2586,2593,2599,2599,2606,2612,2612,2612,2612,2599,2599,2593,2599,2606,2612,2619,2626,2626,2626,2633,2633,2633,2639,2639,2639,2639,2633,2633,2633,2639,2639,2639,2639,2646,2646,2646,2646,2646,2646,2653,2660,2660,2667,2667,2667,2660,2660,2660,2674,0,0,3124,3143,3153,3153,3133,3105,3077,3022,2996,2978,2961,2944,2910,2886,2869,2861,2861,2861,2861,2869,2877,2877,2886,2894,2894,2894,2894,2894,2894,2894,2902,2902,2919,2927,2944,0,0,0,0,1743,1719,1708,1702,1699,1697,1697,1694,1694,1694,1694,1694,1697,1697,1699,1697,1697,1697,1697,1694,1697,1699,1711,1731,1746,1752,1758,1761,1764,1764,1767,1767,1767,1764,1767,1761,1761,0,0,0,2450,2438,2426,0,0,0,0,0,0,0,0,0,0,0,0,0,0,0,0,0,755,753,750,747,746,744,743,740,739,737,736,735,734,732,731,730,729,729,728,727,725,722,722,0,0
0,0,0,0,0,0,0,0,0,2409,2387,2387,2387,2392,2398,2398,2398,2398,2398,2398,2403,2398,0,0,0,2035,2039,2035,2039,2035,2035,2035,2035,2035,2035,2031,2031,2027,2019,2019,2011,2011,0,2461,2438,2426,2426,2438,2444,2450,2450,2450,2450,2450,2455,2455,2455,2455,2455,2455,2455,2455,2450,2461,2461,2461,2467,2467,2467,2473,2473,2473,2473,2473,2473,2473,2467,2467,2473,2473,2479,2491,2497,2497,2504,2504,2504,2504,2516,2516,2522,2528,2522,2522,2516,2522,2522,2528,2528,2522,2528,2528,2528,2528,2535,2528,2528,2535,2535,2535,2535,2535,2535,2541,2547,2541,2547,2554,2554,2554,2560,2554,2560,2567,2567,2573,2573,2573,2573,2573,2573,2586,2586,2579,2586,2579,2573,2573,2573,2573,2567,2567,2573,2573,2579,2579,2593,2593,2599,2606,2612,2612,2619,2612,2606,2599,2599,2606,2612,2619,2619,2626,2626,2626,2626,2626,2633,2639,2633,2633,2633,2633,2639,2639,2639,2639,2639,2639,2639,2646,2646,2646,2646,2646,2653,2660,2667,2674,2674,2667,2660,2660,2660,2674,0,3133,3133,3143,3153,3143,3124,3114,3086,3040,2996,2978,2961,2935,2910,2886,2869,2861,2853,2861,2877,2877,2894,2894,2894,2902,2902,2902,2902,2894,2894,2894,2902,2902,2919,2927,0,0,0,0,1755,1749,1702,1697,1694,1691,1691,1691,1691,1688,1691,1694,1694,1697,1694,1697,1697,1699,1697,1697,1697,1697,1699,1708,1728,1746,1752,1758,1761,1761,1764,1764,1764,1764,1764,1764,1761,1761,1755,1755,0,0,0,0,0,0,0,0,0,0,0,0,0,0,0,0,0,0,0,761,756,754,751,748,746,745,743,741,740,738,737,735,733,733,732,731,730,729,728,727,726,724,722,722,0,0
0,0,0,0,0,0,0,0,0,2403,2387,2381,2387,2398,2398,2403,2403,2398,2392,2398,2398,0,0,0,2039,2039,2039,2035,2039,2035,2035,2035,2035,2039,2039,2039,2035,2031,2023,2019,2015,2015,2015,0,2438,2432,2438,2444,2444,2450,2455,2450,2450,2450,2450,2455,2455,2455,2461,2455,2455,2455,2450,2455,2455,2461,2467,2467,2467,2467,2467,2467,2473,2473,2473,2473,2467,2467,2473,2473,2479,2491,2497,2497,2497,2504,2497,2504,2516,2516,2522,2528,2516,2522,2522,2522,2522,2528,2528,2528,2535,2528,2528,2528,2528,2528,2535,2541,2541,2541,2547,2547,2547,2541,2541,2541,2554,2554,2560,2560,2560,2554,2554,2567,2567,2573,2573,2573,2579,2579,2579,2586,2586,2586,2593,2586,2579,2579,2579,2579,2573,2573,2573,2579,2579,2579,2586,2586,2593,2599,2612,2619,2619,2612,2606,2606,2606,2606,2612,2619,2619,2626,2626,2626,2626,2626,2626,2633,2633,2639,2633,2633,2633,2639,2646,2646,2646,2639,2646,2646,2646,2646,2646,2653,2660,2667,2674,2681,2674,2674,2667,2667,2667,2681,0,3124,3124,3143,3153,3143,3124,3114,3077,3031,2996,2969,2952,2935,2919,2886,2869,2853,2853,2861,2869,2886,2886,2894,2902,2902,2910,2910,2902,2894,2886,2894,2902,2910,2927,2935,0,0,0,0,1734,1699,1691,1688,1688,1688,1688,1688,1688,1688,1691,1694,1694,1697,1697,1697,1697,1694,1694,1688,1691,1694,1697,1708,1722,1740,1749,1755,1758,1761,1764,1764,1764,1761,1758,1758,1755,0,0,1755,1761,0,0,0,0,0,0,0,0,0,0,0,0,0,0,0,0,769,763,759,755,752,749,747,745,744,743,741,740,739,737,736,735,734,733,732,731,729,728,727,726,723,722,721,0,0
0,0,0,0,0,0,0,0,0,2392,2375,2375,0,2403,2403,2403,2398,2392,2392,2392,2387,2375,0,0,0,2043,2039,2039,2039,2035,2035,2031,2035,2039,2039,2039,2035,2027,2023,2019,2015,2015,2015,0,2438,2432,2438,2444,2450,2455,2455,2455,2450,2450,2450,2455,2455,2455,2455,2455,2455,2455,2461,2461,2461,2467,2467,2467,2467,2467,2467,2467,2473,2473,2473,2473,2467,2467,2467,2473,2479,2491,2497,2497,2497,2504,2497,2504,2510,2510,2516,2522,2522,2522,2516,2516,2516,2522,2528,2528,2535,2528,2528,2522,2528,2535,2535,2547,2547,2554,2554,2547,2547,2541,2541,2541,2554,2560,2560,2560,2567,2560,2560,2567,2567,2573,2573,2573,2573,2573,2573,2586,2586,2593,2599,2599,2593,2593,2586,2579,2586,2579,2586,2586,2579,2579,2586,2586,2593,2606,2612,2619,2619,2619,2606,2606,2606,2606,2612,2619,2619,2626,2626,2626,2626,2626,2626,2633,2626,2633,2633,2626,2633,2639,2639,2646,2646,2646,2646,2646,2653,2653,2660,2660,2667,2674,2681,2688,2681,2674,2667,2667,2667,2681,0,3124,3124,3133,3143,3143,3114,3105,3077,3031,2996,2969,2952,2927,2919,2894,2877,2861,2853,2861,2877,2886,2886,2886,2894,2902,2910,2910,2910,2902,2894,2902,2902,2902,2927,2935,0,0,0,0,1731,1691,1683,1683,1683,1685,1685,1685,1685,1685,1688,1688,1691,1694,1694,1697,1694,1694,1691,1688,1688,1691,1694,1702,1714,1731,1743,1752,1755,1758,1761,1761,1764,1758,1755,0,0,0,0,0,0,0,0,0,0,0,0,0,0,0,0,0,0,0,0,0,769,765,762,757,754,751,748,746,745,743,741,740,739,739,737,736,735,733,733,732,731,730,728,727,725,723,721,721,0,0
0,0,0,0,0,0,0,0,0,0,0,0,0,0,0,2403,2392,2392,2387,2392,2392,0,0,0,2047,2043,2039,2039,2039,2035,2039,2035,2039,2039,2039,2035,2031,2023,2023,2019,2019,2019,2019,2461,2444,2438,2438,2444,2450,2455,2450,2455,2450,2450,2455,2455,2450,2450,2455,2455,2455,2461,2461,2461,2461,2461,2467,2467,2467,2473,2473,2473,2473,2473,2467,2467,2467,2461,2467,2467,2473,2479,2491,2497,2504,2504,2497,2504,2510,2510,2522,2528,2522,2522,2516,2516,2516,2528,2528,2535,2535,2528,2528,2528,2535,2535,2541,2547,2547,2547,2547,2547,2541,2541,2541,2547,2560,2567,2567,2567,2567,2567,2567,2560,2567,2567,2573,2567,2573,2579,2573,2579,2586,2593,2599,2606,2599,2599,2599,2593,2593,2593,2593,2586,2586,2579,2579,2579,2593,2606,2612,2619,2626,2619,2612,2612,2612,2606,2612,2619,2619,2626,2633,2633,2626,2626,2633,2633,2626,2633,2633,2633,2633,2639,2646,2646,2653,2653,2653,2660,2660,2660,2660,2667,2674,2681,2688,2695,2688,2667,2667,2667,2660,2681,0,3124,3124,3133,3143,3133,3114,3105,3058,3022,2996,2969,2952,2927,2910,2894,2869,2861,2861,2869,2877,2886,2877,2886,2894,2902,2910,2910,2910,2910,2902,2910,2919,2910,2919,0,0,0,0,0,1697,1685,1680,1680,1680,1680,1683,1683,1683,1683,1683,1685,1685,1688,1691,1694,1694,1691,1688,1685,1685,1688,1691,1699,1708,1722,1740,1749,1752,1755,1758,1758,1761,1755,0,0,0,0,0,0,0,0,0,0,0,0,0,0,0,0,0,0,0,0,0,769,768,764,759,756,753,750,748,746,745,743,741,740,738,738,737,736,735,733,733,732,730,730,728,727,725,723,721,721,0,0
0,0,0,0,0,0,0,0,0,0,0,2023,2031,2035,0,0,2387,2387,2392,2392,2392,0,0,0,2051,2047,2039,2039,2039,2035,2035,2035,2035,2039,2039,2035,2031,2019,2023,2023,2019,2019,0,2444,2444,2444,2444,2450,2450,2455,2450,2455,2461,2455,2461,2455,2455,2455,2461,2461,2461,2467,2467,2461,2461,2461,2461,2467,2461,2467,2467,2473,2473,2473,2473,2473,2467,2467,2467,2467,2473,2479,2491,2497,2504,2504,2497,2504,2510,2516,2522,2528,2522,2516,2510,2510,2516,2522,2535,2541,2541,2535,2535,2535,2535,2541,2541,2541,2547,2554,2547,2547,2547,2547,2547,2554,2560,2567,2567,2567,2567,2560,2560,2560,2560,2560,2567,2567,2573,2579,2573,2579,2586,2586,2599,2599,2606,2599,2599,2599,2599,2593,2593,2593,2593,2586,2586,2586,2593,2606,2612,2619,2626,2619,2619,2619,2619,2619,2619,2619,2619,2626,2633,2639,2639,2633,2633,2633,2626,2626,2633,2633,2633,2639,2646,2653,2667,2660,2660,2667,2667,2674,2667,2674,2674,2681,2688,2688,2681,2674,2667,2660,2667,2674,0,3133,3133,3143,3143,3133,3114,3086,3049,3022,2996,2978,2952,2927,2919,2902,2877,2861,2869,2869,2869,2877,2877,2877,2894,2902,2910,2910,2919,2919,2910,2910,2910,2910,2902,0,0,0,0,1697,1683,1677,1672,1674,1674,1677,1680,1680,1677,1680,1680,1683,1683,1685,1691,1694,1694,1691,1685,1683,1680,1683,1688,1697,1705,1719,1737,1749,1752,1752,1758,1758,0,0,0,0,0,0,0,0,0,0,0,0,0,0,0,0,0,0,0,0,0,0,0,767,766,763,756,754,752,750,748,746,745,743,741,740,738,737,737,736,735,733,732,731,730,730,728,727,725,722,720,719,0,0
0,0,0,0,0,0,0,0,0,0,2015,2019,2027,2031,2047,0,2381,2392,2392,2398,2392,0,0,0,2051,2047,2039,2035,2035,2031,2031,2031,2031,2035,2031,2027,2019,2015,2015,2019,2019,2019,0,2438,2444,2450,2450,2455,2444,2450,2444,2450,2450,2450,2461,2461,2461,2455,2461,2461,2467,2467,2473,2467,2467,2461,2461,2461,2461,2467,2467,2473,2479,2479,2479,2479,2479,2473,2467,2467,2467,2479,2485,2497,2504,2504,2504,2504,2510,2516,2522,2522,2522,2516,2510,2510,2516,2522,2535,2535,2535,2535,2541,2541,2547,2541,2541,2541,2547,2554,2547,2547,2541,2547,2554,2554,2560,2567,2560,2567,2560,2560,2560,2560,2567,2567,2567,2567,2573,2573,2573,2573,2579,2579,2586,2593,2599,2599,2606,2599,2599,2593,2593,2599,2593,2586,2593,2586,2599,2606,2606,2619,2619,2626,2626,2619,2619,2612,2619,2619,2619,2633,2633,2639,2639,2639,2633,2633,2626,2633,2639,2639,2646,2646,2653,2660,2667,2660,2660,2667,2667,2667,2674,2674,2674,2681,2681,2688,2681,2674,2667,2667,2681,0,0,3133,3153,3153,3153,3143,3114,3086,3040,3004,2987,2969,2952,2935,2919,2894,2886,2869,2869,2877,2877,2886,2877,2886,2894,2902,2910,2919,2919,2910,2902,2902,2886,0,0,0,1731,1711,1697,1685,1677,1674,1669,1666,1666,1669,1674,1674,1674,1674,1674,1677,1677,1683,1688,1691,1694,1691,1685,1683,1677,1683,1685,1694,1702,1717,1737,1746,1749,1749,1752,1755,0,0,0,0,0,0,0,0,0,0,0,0,0,0,0,0,0,0,0,0,0,0,768,765,764,760,755,753,751,750,748,746,745,743,741,739,738,737,736,735,734,732,732,731,730,729,728,727,725,722,720,719,0,0
0,0,0,0,0,0,0,0,0,0,2015,2019,2023,2031,2047,0,0,2392,2398,0,0,0,0,0,2027,2031,2031,2027,2031,2027,2023,2027,2031,2031,2031,2023,2015,2015,2015,2015,2015,2015,0,2444,2450,2455,2455,2455,2444,2450,2444,2450,2450,2450,2461,2461,2467,2467,2467,2461,2467,2473,2467,2467,2467,2461,2461,2461,2455,2461,2467,2473,2479,2479,2479,2479,2479,2473,2473,2467,2467,2473,2485,2497,2504,2504,2510,2510,2510,2516,2516,2516,2516,2516,2516,2516,2522,2528,2535,2541,2541,2541,2535,2541,2541,2535,2541,2541,2547,2547,2547,2547,2547,2554,2554,2560,2560,2567,2560,2567,2560,2560,2560,2560,2560,2567,2567,2573,2579,2579,2573,2573,2573,2567,2573,2579,2586,2593,2599,2606,2599,2593,2593,2593,2593,2593,2599,2593,2606,2612,2612,2619,2626,2626,2633,2626,2619,2619,2619,2626,2626,2633,2633,2633,2639,2639,2633,2633,2626,2633,2639,2646,2653,2653,2660,2660,2660,2660,2667,2667,2667,2667,2667,2667,2667,2674,2681,2681,2674,2674,2667,2674,2688,0,3114,3143,3163,3163,3153,3143,3124,3086,3049,3004,2987,2961,2935,2927,2910,2886,2877,2861,2869,2869,2877,2886,2886,2894,2894,2910,2919,2919,2927,2919,2902,2886,0,0,0,0,1714,1697,1688,1677,1674,1672,1666,1666,1663,1666,1669,1669,1672,1672,1672,1674,1674,1677,1683,1685,1691,1691,1683,1680,1677,1680,1685,1694,1705,1719,1737,1746,1749,0,0,0,0,0,0,0,0,0,0,0,0,0,0,0,0,0,0,0,0,0,0,0,0,0,766,763,761,756,754,752,750,749,747,746,744,742,740,739,737,736,736,736,735,733,732,731,730,729,728,726,724,722,720,718,0,0
0,0,0,0,0,0,0,0,0,0,2015,2023,2023,2027,2039,0,0,0,0,0,0,0,0,2019,2023,2027,2023,2023,2023,2019,2015,2019,2019,2019,2019,2015,2015,2011,2015,2015,2015,0,2438,2444,2450,2450,2455,2455,2444,2450,2450,2450,2455,2455,2461,2467,2467,2467,2467,2467,2473,2473,2473,2473,2473,2467,2461,2461,2461,2467,2467,2479,2485,2479,2485,2479,2479,2479,2473,2473,2473,2473,2485,2497,2504,2504,2510,2504,2510,2510,2510,2516,2516,2510,2516,2516,2522,2528,2535,2541,2541,2541,2541,2541,2535,2535,2541,2541,2547,2547,2547,2554,2554,2554,2560,2560,2560,2560,2560,2567,2567,2560,2560,2560,2560,2567,2567,2573,2579,2579,2579,2579,2573,2567,2567,2567,2573,2586,2593,2599,2599,2599,2593,2599,2593,2593,2599,2599,2606,2606,2606,2612,2619,2626,2633,2626,2619,2626,2619,2626,2626,2639,2646,2633,2646,2639,2633,2626,2626,2633,2639,2653,2653,2653,2653,2660,2667,2660,2667,2667,2660,2667,2667,2667,2674,2681,2681,2688,2674,2674,2674,2681,2695,0,3114,3143,3163,3163,3163,3133,3105,3077,3049,3013,2978,2952,2927,2910,2894,2877,2869,2869,2869,2869,2877,2877,2886,2894,2894,2902,2910,2919,2919,2919,2910,0,0,0,0,0,1705,1694,1685,1677,1672,1669,1663,1661,1661,1663,1666,1666,1669,1669,1672,1672,1672,1672,1680,1685,1688,1688,1683,1683,1680,1680,1685,1691,1702,1717,1734,1743,0,0,0,0,0,0,0,0,0,0,0,0,0,0,0,0,0,0,0,0,0,0,0,0,0,0,764,762,759,756,753,752,749,749,746,745,744,741,740,739,738,737,736,736,734,733,732,731,730,729,727,725,724,722,719,717,0,0
0,0,0,0,0,0,0,0,0,0,2015,2019,2023,2023,0,0,0,0,1987,1983,1983,1995,1999,2003,2007,2011,2011,2007,2007,1999,1999,2003,2003,2003,1999,1999,2003,2003,2011,2015,2015,0,2426,2438,2444,2450,2461,2455,2450,2455,2450,2450,2450,2450,2455,2455,2467,2467,2461,2467,2473,2473,2473,2479,2479,2473,2467,2467,2467,2467,2473,2479,2485,2485,2479,2479,2473,2479,2473,2473,2473,2479,2485,2504,2510,2510,2510,2510,2510,2510,2516,2516,2516,2516,2522,2528,2528,2541,2541,2541,2541,2541,2535,2535,2535,2535,2541,2541,2547,2554,2554,2554,2554,2560,2560,2560,2560,2567,2567,2579,2573,2573,2579,2579,2579,2579,2573,2573,2579,2579,2579,2579,2579,2573,2573,2573,2573,2586,2593,2599,2599,2599,2599,2599,2593,2593,2593,2593,2606,2606,2612,2619,2619,2626,2626,2619,2612,2619,2619,2626,2633,2633,2639,2633,2639,2639,2633,2633,2633,2639,2653,2660,2660,2660,2660,2660,2660,2660,2667,2667,2667,2667,2674,2674,2674,2681,2688,2681,2674,2674,2674,2688,2695,0,3124,3143,3163,3172,3153,3133,3105,3068,3040,3013,2987,2961,2935,2910,2894,2877,2869,2869,2877,2877,2877,2886,2886,2886,2894,2902,2910,2919,2919,2919,2894,0,0,0,0,1708,1699,1691,1683,1677,1669,1666,1661,1658,1658,1661,1661,1661,1666,1666,1669,1669,1669,1669,1674,1677,1683,1683,1683,1680,1677,1677,1688,1694,1699,1708,1717,0,0,0,0,0,0,0,0,0,0,0,0,0,0,0,0,0,0,0,0,0,0,0,0,769,765,764,763,760,757,755,753,752,749,748,746,745,743,741,740,739,738,737,737,736,734,733,732,732,730,729,727,724,723,721,719,718,0,0
0,0,0,0,0,0,0,0,0,0,2011,2019,2023,2027,0,0,0,1991,1991,1995,1991,1991,1987,1987,1987,1991,1991,1987,1987,1979,1983,1983,1983,1983,1983,1987,1995,1999,2007,2015,2019,2031,0,2444,2444,2444,2455,2455,2455,2467,2455,2455,2450,2450,2455,2461,2467,2467,2467,2467,2473,2473,2479,2479,2479,2473,2473,2473,2473,2473,2473,2479,2479,2479,2479,2479,2473,2479,2479,2479,2479,2479,2491,2504,2510,2510,2510,2516,2516,2516,2516,2516,2516,2522,2528,2535,2535,2541,2541,2541,2541,2547,2541,2541,2541,2541,2541,2547,2547,2554,2554,2554,2560,2560,2560,2560,2567,2573,2579,2579,2586,2586,2593,2593,2593,2586,2579,2579,2586,2579,2586,2586,2579,2573,2586,2579,2579,2586,2593,2599,2606,2612,2606,2599,2593,2593,2593,2599,2606,2612,2612,2619,2626,2626,2626,2619,2612,2619,2612,2612,2626,2626,2633,2633,2633,2633,2626,2626,2633,2633,2653,2660,2660,2667,2667,2674,2674,2667,2667,2667,2667,2667,2674,2674,2674,2681,2681,2681,2674,2681,2681,2688,2702,0,3133,3153,3163,3163,3153,3133,3095,3058,3031,3013,2987,2969,2935,2910,2894,2877,2869,2869,2877,2877,2877,2886,2886,2886,2894,2910,2910,2919,2919,2927,2910,0,0,0,0,1702,1694,1685,1683,1677,1669,1663,1658,1655,1655,1658,1658,1661,1661,1663,1666,1666,1669,1669,1672,1674,1677,1677,1677,1674,1677,1680,1691,1697,1699,1705,1708,0,0,0,0,0,0,0,0,0,0,0,0,0,0,0,0,0,0,0,0,0,0,0,0,770,767,765,764,762,757,755,753,751,749,747,746,744,743,742,740,739,738,737,737,736,735,735,733,732,730,729,727,724,722,721,718,718,0,0
0,0,0,0,0,0,0,0,0,0,1995,2011,2015,2023,0,0,0,0,1999,1999,1999,1999,1991,1991,1991,1991,1987,1987,1983,1976,1979,1979,1976,1976,1976,1976,1983,1987,1999,2015,2027,2043,0,0,2444,2450,2461,2455,2461,2461,2455,2450,2450,2455,2461,2467,2467,2467,2467,2467,2473,2473,2473,2473,2473,2473,2473,2479,2479,2479,2479,2485,2485,2479,2479,2479,2479,2473,2479,2473,2473,2479,2491,2504,2516,2516,2516,2516,2516,2516,2522,2522,2522,2528,2535,2541,2547,2541,2541,2541,2541,2547,2547,2547,2547,2547,2547,2547,2547,2554,2554,2560,2560,2567,2567,2567,2573,2579,2586,2586,2593,2593,2599,2599,2599,2593,2579,2579,2593,2586,2593,2593,2593,2586,2593,2586,2586,2593,2599,2599,2612,2619,2612,2612,2599,2599,2593,2593,2606,2606,2612,2619,2626,2626,2626,2626,2619,2619,2619,2619,2626,2633,2639,2639,2633,2639,2633,2633,2639,2646,2653,2653,2660,2667,2674,2681,2674,2674,2674,2667,2667,2667,2674,2681,2681,2688,2688,2688,2681,2688,2688,2702,0,0,3143,3163,3172,3172,3153,3124,3095,3068,3031,3013,2996,2978,2944,2919,2902,2894,2877,2877,2877,2869,2869,2877,2877,2886,2902,2910,2910,2910,2910,2910,2894,0,0,0,0,0,1688,1683,1680,1674,1669,1661,1653,1650,1650,1653,1655,1655,1658,1658,1663,1663,1666,1666,1669,1669,1672,1672,1674,1674,1677,1677,1688,1694,1697,1702,1708,0,0,0,0,0,0,0,0,0,0,0,0,0,0,0,0,0,0,0,0,0,0,774,774,770,766,764,763,761,757,755,752,750,749,747,745,744,743,742,740,739,738,737,737,736,735,734,732,731,729,728,726,723,721,720,718,718,0,0
0,0,0,0,0,0,0,0,0,0,1964,1972,1976,1987,2003,1995,2003,1999,2003,2003,1999,1999,1995,1987,1991,1991,1987,1987,1983,1976,1979,1976,1976,1976,1976,1976,1979,1983,1995,2011,2027,2051,2059,0,2438,2444,2455,2455,2461,2461,2455,2450,2450,2455,2461,2467,2467,2473,2473,2467,2473,2473,2473,2473,2473,2473,2473,2473,2479,2479,2479,2485,2485,2479,2479,2479,2479,2479,2479,2479,2479,2485,2497,2510,2522,2522,2522,2522,2522,2522,2522,2522,2528,2541,2541,2554,2547,2547,2541,2541,2547,2554,2554,2554,2554,2554,2554,2547,2554,2554,2554,2560,2567,2567,2567,2573,2573,2579,2586,2586,2586,2593,2599,2599,2599,2599,2586,2586,2593,2593,2599,2599,2593,2593,2593,2593,2586,2586,2593,2599,2606,2612,2612,2612,2606,2599,2599,2599,2606,2606,2612,2619,2626,2633,2626,2619,2619,2619,2619,2626,2639,2639,2639,2639,2639,2639,2639,2639,2646,2653,2653,2660,2660,2674,2674,2674,2674,2667,2674,2667,2674,2674,2681,2681,2688,2688,2695,2688,2688,2688,2688,2702,0,0,3143,3163,3172,3163,3153,3124,3095,3058,3031,3013,0,2987,2952,2910,2902,2886,2886,2886,2886,2886,2877,2877,2886,2894,2910,2919,2919,2919,2910,2902,0,0,0,0,1691,1688,1683,1677,1677,1672,1663,1658,1650,1642,1642,1642,1642,1645,1645,1653,1655,1658,1663,1663,1666,1669,1669,1669,1672,1674,1674,1680,1691,1694,1699,1702,0,0,0,0,0,0,0,0,0,0,0,0,0,0,0,0,0,0,0,0,0,0,774,773,772,768,766,764,763,762,758,755,752,751,750,748,746,744,743,741,740,740,738,737,737,736,736,735,732,730,729,727,725,722,721,721,719,719,0,0
0,0,0,0,0,0,0,0,0,0,1960,1964,1972,1983,1995,1987,1991,1987,1987,1995,1995,1999,1995,1991,1991,1991,1987,1987,1983,1979,1979,1979,1979,1979,1979,1976,1983,1987,1995,2011,2031,2047,2059,0,2438,2444,2455,2455,2455,2461,2455,2450,2450,2450,2461,2473,2473,2473,2473,2467,2473,2473,2473,2473,2473,2473,2473,2479,2479,2485,2485,2485,2485,2479,2479,2485,2485,2485,2485,2485,2485,2491,2504,2516,2522,2516,2516,2522,2522,2522,2528,2528,2535,2541,2547,2554,2554,2547,2547,2547,2547,2554,2554,2554,2554,2554,2547,2547,2554,2554,2560,2560,2567,2567,2567,2573,2573,2573,2579,2579,2579,2579,2586,2593,2593,2593,2593,2586,2599,2599,2606,2606,2606,2599,2599,2586,2586,2579,2586,2593,2606,2612,2619,2619,2619,2612,2606,2599,2599,2606,2612,2619,2633,2633,2626,2626,2626,2619,2626,2626,2639,2639,2639,2639,2633,2633,2639,2639,2646,2653,2660,2660,2667,2674,2674,2674,2674,2667,2667,2667,2674,2674,2681,2681,2681,2688,2695,2695,2695,2695,2695,2702,2702,0,3133,3153,0,0,0,0,0,0,0,0,0,0,0,0,0,2869,0,0,0,0,2877,2877,2886,2894,2910,2919,2927,2927,2935,2927,0,0,0,1711,1702,1697,1685,1677,1674,1672,1663,1653,1642,1637,1637,1637,1634,1639,1639,1647,1650,1655,1661,1661,1666,1669,1669,1669,1672,1672,1674,1677,1683,1688,1691,0,0,0,0,0,0,0,0,0,0,0,0,0,0,0,0,0,0,0,0,0,0,0,773,772,772,768,765,764,762,761,757,755,753,751,750,748,746,745,743,742,741,740,740,739,738,737,736,735,732,730,728,726,724,723,721,720,719,718,0,0
0,0,0,0,0,0,0,0,0,0,1960,1964,1968,1979,1987,1987,1995,1991,1991,1999,1999,1995,1995,1991,1991,1991,1987,1987,1987,1983,1979,1979,1979,1979,1979,1979,1983,1991,2003,2019,2035,2047,2059,0,2444,2450,2455,2455,2455,2455,2450,2455,2455,2461,2467,2473,2473,2473,2479,2479,2479,2479,2485,2479,2479,2479,2479,2479,2485,2485,2491,2485,2485,2479,2479,2485,2485,2485,2485,2485,2485,2491,2504,2516,2516,2516,2516,2522,2522,2528,2528,2535,2541,2547,2547,2554,2554,2547,2554,2554,2554,2554,2547,2547,2554,2554,2554,2554,2560,2554,2560,2560,2567,2560,2560,2567,2567,2567,2573,2573,2573,2573,2573,2573,2579,2586,2593,2586,2599,2606,2606,2612,2612,2606,2606,2593,2593,2586,2586,2593,2606,2612,2619,2626,2626,2626,2612,2599,2599,2606,2612,2619,2633,2633,2626,2633,2626,2626,2633,2633,2639,2639,2639,2639,2639,2639,2646,2653,2653,2653,2660,2660,2660,2674,2674,2674,2667,2667,2674,2674,2681,2681,2681,2681,2688,2688,2688,2695,2695,2688,2688,2702,2702,0,0,0,0,0,0,0,0,0,1798,1798,1798,1795,1795,0,0,1805,1801,1801,1801,1805,1808,0,0,0,2919,2919,0,0,0,0,0,0,0,1719,1708,1694,1677,1666,1666,1661,1653,1639,1632,1629,1632,1629,1626,1629,1629,1639,1647,1653,1658,1658,1663,1666,1666,1666,1669,1672,1677,1685,1688,0,0,0,0,0,0,0,0,0,0,0,0,0,0,0,0,0,0,0,0,0,0,0,0,781,773,772,771,767,765,763,761,760,757,755,753,751,750,749,746,744,742,741,741,740,740,739,738,737,736,734,732,730,728,726,723,722,721,720,719,718,0,0
0,0,0,0,0,0,0,0,0,0,1964,1968,1972,1979,1987,1983,1991,1995,1995,1999,1999,1995,1995,1991,1991,1987,1987,1987,1987,1983,1983,1983,1983,1983,1979,1983,1983,1999,2011,2023,2039,2047,2059,0,2438,2450,2461,2455,2461,2461,2455,2461,2455,2461,2467,2473,2473,2473,2479,2479,2479,2485,2485,2479,2485,2485,2473,2473,2479,2479,2485,2485,2485,2485,2485,2485,2485,2491,2491,2491,2491,2497,2510,2516,2516,2516,2522,2522,2528,2541,2541,2541,2541,2547,2541,2547,2541,2547,2554,2554,2554,2547,2547,2541,2547,2554,2554,2560,2560,2560,2560,2560,2560,2560,2560,2560,2567,2567,2567,2567,2567,2567,2567,2567,2573,2579,2586,2586,2586,2599,2599,2612,2619,2612,2619,2599,2599,2593,2586,2593,2599,2612,2612,2619,2626,2626,2619,2606,2599,2606,2612,2619,2633,2633,2626,2626,2626,2633,2639,2633,2646,2646,2639,2646,2646,2646,2653,2660,2660,2660,2660,2660,2660,2667,2674,2674,2667,2667,2674,2674,2681,2681,2681,2681,2688,2688,2688,2695,2695,2681,2688,2695,2695,0,0,0,0,0,1798,1795,1795,1795,1798,1798,1801,1798,1798,1801,1801,1805,1805,1808,1808,1808,1811,1811,1811,0,0,0,1808,1811,1811,0,0,0,1740,1725,1708,1697,1672,1658,1653,1645,1621,1614,1616,1619,1621,1624,1624,1626,1626,1632,1642,1647,1655,1658,1661,1663,1663,1663,1669,1672,0,0,0,0,0,0,0,0,0,0,0,0,0,0,0,0,0,0,0,0,0,0,0,0,0,0,781,777,772,771,769,767,765,763,760,759,757,756,754,752,751,749,746,744,742,741,741,741,740,739,738,737,736,734,732,730,728,726,724,723,722,720,719,718,0,0
0,0,0,0,0,0,0,0,0,0,0,1968,1976,1987,1995,1995,1995,1999,1995,2003,2003,1999,1999,1999,1991,1991,1991,1983,1983,1983,1983,1987,1983,1983,1983,1983,1987,1999,2011,2019,2039,2043,2051,2051,0,2444,2461,2467,2467,2467,2467,2467,2461,2467,2473,2473,2479,2479,2479,2473,2473,2479,2479,2479,2485,2485,2479,2479,2479,2479,2485,2485,2485,2485,2485,2485,2491,2497,2497,2497,2497,2504,2510,2516,2516,2516,2522,2528,2535,2535,2541,2541,2541,2547,2547,2547,2541,2547,2554,2554,2554,2547,2547,2541,2547,2554,2554,2554,2554,2554,2560,2560,2560,2560,2560,2560,2567,2567,2567,2567,2567,2560,2567,2567,2573,2579,2586,2579,2579,2593,2593,2606,2612,2619,2626,2612,2606,2593,2593,2599,2599,2612,2619,2619,2626,2626,2626,2612,2606,2612,2612,2626,2633,2633,2633,2633,2633,2639,2639,2639,2646,2646,2646,2646,2639,2646,2653,2653,2653,2660,2660,2660,2660,2667,2674,2674,2674,2667,2667,2667,2674,2688,2681,2681,2688,2688,2681,2688,2688,2681,2681,2688,2688,2681,0,0,0,1814,1805,1801,1801,1801,1801,1801,1801,1798,1801,1801,1805,1808,1808,1808,1808,1811,1811,1811,1811,1811,1811,1814,1814,1814,1808,1798,1776,1752,1737,1722,1708,1688,1658,1647,1639,1624,1611,1603,1608,1614,1619,1621,1621,1624,1624,1626,1632,1639,1647,1650,1655,1658,1658,0,0,0,0,0,0,1478,1482,1491,0,0,0,0,0,0,0,0,0,0,0,0,0,0,0,0,0,0,0,781,779,775,773,771,769,767,766,764,761,759,757,756,755,753,751,749,746,744,742,742,741,741,741,739,739,737,736,734,732,730,728,725,723,722,721,719,718,717,0,0
0,0,0,0,0,0,0,0,0,0,0,1964,1972,0,1995,2003,1999,2003,2007,2007,2011,2011,2003,2003,1999,1999,1999,1987,1983,1979,1979,1983,1983,1987,1983,1983,1987,1999,2011,2019,2039,2043,2047,2047,0,2455,2461,2467,2473,2473,2467,2467,2467,2473,2473,2473,2479,2473,2473,2473,2473,2479,2479,2479,2485,2485,2479,2473,2479,2479,2485,2491,2491,2491,2491,2491,2497,2504,2497,2504,2497,2497,2504,2516,2522,2522,2528,2535,2535,2541,2541,2541,2541,2547,2547,2547,2541,2547,2554,2554,2554,2554,2547,2547,2554,2554,2560,2554,2560,2554,2560,2560,2554,2560,2560,2560,2573,2579,2573,2579,2573,2560,2567,2573,2579,2579,2586,2579,2573,2579,2586,2599,2612,2619,2626,2619,2612,2599,2599,2599,2599,2612,2619,2626,2626,2626,2633,2619,2619,2619,2619,2626,2633,2639,2639,2639,2633,2633,2633,2633,2639,2646,2646,2646,2646,2646,2653,2660,2660,2667,2660,2660,2660,2667,2674,2674,2674,2667,2660,2674,2681,2688,2688,2681,2688,2688,2681,2681,2681,2681,2681,2681,2688,2688,0,0,0,1811,1805,1801,1805,1805,1801,1801,1801,1801,1801,1801,1805,1805,1808,1808,1808,1808,1805,1805,1808,1808,1811,1814,1817,1814,1808,1795,1767,1746,1731,1714,1702,1669,1650,1634,1624,1614,1603,1596,1598,1603,1608,1611,1614,1614,1616,1619,1621,1629,1637,1639,1645,1653,0,0,0,1476,1478,1476,1478,1482,1484,1484,0,0,0,0,0,0,0,0,0,0,0,0,0,0,0,0,0,0,0,782,778,775,772,771,769,767,766,764,762,759,757,757,756,753,752,747,746,743,741,741,741,741,740,739,739,737,736,733,731,730,728,726,723,721,720,719,718,717,0,0
0,0,0,0,0,0,0,0,0,0,0,0,0,1562,1557,0,0,0,0,0,0,0,2011,2007,2003,1999,1995,1983,1979,1976,1976,1983,1983,1983,1983,1983,1995,2003,2015,2023,2039,2043,2047,2043,0,0,2455,2461,2479,2473,2473,2473,2467,2473,2473,2479,2479,2473,2473,2473,2473,2473,2479,2479,2485,2479,2473,2473,2479,2479,2485,2491,2491,2485,2491,2491,2497,2504,2504,2504,2504,2497,2510,2522,2522,2528,2535,2541,2541,2535,2541,2535,2535,2541,2541,2541,2541,2547,2547,2547,2547,2554,2554,2547,2560,2554,2567,2560,2560,2554,2560,2560,2560,2573,2573,2573,2579,2586,2586,2593,2593,2579,2573,2573,2579,2579,2586,2573,2567,2573,2579,2586,2599,2612,2619,2619,2619,2606,2599,2599,2599,2606,2612,2619,2626,2626,2633,2626,2626,2626,2619,2633,2633,2639,2646,2639,2639,2633,2633,2633,2646,2653,2653,2646,2646,2646,2646,2653,2660,2667,2667,2667,2667,2674,2674,2674,2674,2667,2667,2667,2681,2688,2695,2688,2688,2688,2688,2681,2681,2681,2681,2688,2695,0,0,0,0,1811,1805,1801,1805,1805,1801,1805,1801,1801,1801,1801,1805,1808,1808,1808,1808,1805,1801,1801,1805,1805,1805,1805,1808,1808,1798,1786,1755,1743,1725,1711,1697,1661,1650,1634,1621,1614,1603,1593,1593,1596,1601,1606,1606,1608,1611,1614,1619,1624,1634,1637,1639,0,0,0,1478,1476,1478,1478,1478,1480,1480,1478,0,0,0,0,0,0,0,0,0,0,0,0,0,0,0,0,0,0,0,782,777,775,772,771,769,767,766,764,763,761,760,758,756,754,752,747,746,744,743,742,741,741,741,740,738,737,735,733,731,729,727,725,723,721,720,719,719,717,0,0
0,0,0,0,0,0,0,0,0,0,0,0,1564,1562,1559,1557,0,0,0,0,1579,1576,0,0,0,2007,2007,1995,1987,1979,1976,1979,1976,1979,1979,1979,1991,2003,2011,2019,2035,2043,2047,2039,0,2450,2455,2467,2485,2479,2479,2473,2473,2473,2473,2473,2479,2473,2473,2473,2473,2473,2473,2473,2485,2485,2479,2485,2485,2485,2485,2485,2485,2485,2485,2491,2497,2497,2497,2504,2497,2504,2516,2522,2528,2535,2541,2541,2541,2535,2535,2528,2535,2541,2547,2547,2547,2554,2554,2554,2560,2560,2554,2554,2560,2560,2567,2567,2567,2567,2573,2573,2573,2586,2579,2586,2586,2593,2599,2606,2599,2586,2579,2579,2579,2586,2586,2579,2567,2573,2573,2579,2593,2606,2612,2626,2626,2612,2606,2599,2599,2599,2612,2619,2626,2626,2633,2626,2626,2626,2626,2633,2639,2646,2646,2639,2639,2633,2633,2639,2639,2646,2646,2646,2639,2646,2646,2653,2660,2667,2667,2674,2674,2674,2674,2667,2667,2667,2667,2674,2681,2695,2695,2688,2688,2681,2681,2681,2681,2681,2688,2688,2702,0,0,0,1817,1814,1805,1801,1801,1801,1801,1805,1801,1801,1801,1801,1801,1808,1811,1808,1805,1798,1795,1801,1805,1805,1805,1805,1805,1805,1795,1773,1746,1734,1719,1705,1688,1655,1645,1632,1621,1611,1598,1588,1586,1586,1591,1596,1593,1596,1601,1603,1611,1621,1629,0,0,0,1482,1484,1480,1480,1480,1478,1480,1482,1484,1480,0,0,0,0,0,0,0,0,0,0,0,0,0,0,0,0,0,0,0,779,776,774,772,771,769,767,767,765,764,763,761,760,757,755,751,747,745,744,743,741,741,741,741,740,738,736,735,732,730,728,726,724,722,721,719,719,719,718,0,0
0,0,0,0,0,0,0,0,0,0,0,0,1562,1562,1562,1564,1566,1569,1574,1574,1574,1576,1576,1576,1579,0,0,2007,0,0,0,0,0,0,0,0,0,0,0,0,2043,2055,2063,0,0,2450,2461,2461,2473,2479,2479,2479,2479,2479,2479,2479,2473,2467,2473,2473,2473,2479,2479,2479,2485,2485,2491,2491,2491,2497,2491,2491,2491,2485,2485,2485,2491,2497,2497,2497,2504,2510,2516,2528,2528,2535,2535,2541,2541,2535,2535,2535,2535,2541,2547,2541,2547,2554,2554,2560,2560,2560,2554,2560,2567,2560,2573,2573,2573,2573,2579,2573,2579,2586,2586,2593,2593,2599,2599,2606,2606,2599,2593,2593,2593,2593,2593,2586,2579,2573,2579,2579,2599,2606,2612,2619,2619,2619,2612,2599,2599,2606,2612,2619,2626,2626,2626,2626,2626,2626,2626,2626,2639,2646,2646,2633,2633,2626,2626,2633,2639,2639,2646,2646,2646,2646,2653,2660,2674,2667,2667,2674,2674,2674,2674,2674,2674,2674,2674,2681,2681,2688,2695,2688,2688,2688,2681,2681,2681,2688,2695,2702,2717,2768,0,0,1817,1805,1801,1798,1798,1798,1798,1801,1798,1801,1801,1798,1798,1798,1801,0,1798,1792,1792,1801,1805,1805,1808,1808,1808,1801,1789,1761,1743,1728,1711,1697,1666,1650,1639,1629,1619,1608,1596,1583,1579,1579,1581,1588,1588,1591,1591,1588,1593,0,0,1472,1474,1474,1478,1478,1478,1478,1480,1478,1480,1482,1484,1480,0,0,0,0,0,0,0,0,0,0,0,0,0,0,0,0,0,0,0,0,0,0,772,772,769,767,767,766,764,764,763,760,756,753,749,746,745,744,744,743,741,741,740,740,738,736,735,731,729,728,726,724,722,721,720,719,721,721,0,0
0,0,0,0,0,0,0,0,0,0,0,0,1562,1562,1564,1569,1569,1571,1574,1574,1574,1574,1576,1576,1576,1579,1576,1579,1583,1586,1588,1591,1591,1591,1588,1588,1593,1596,1606,1608,1606,0,0,0,0,0,2473,2473,2479,2485,2485,2479,2479,2479,2479,2473,2473,2473,2473,2485,2479,2479,2479,2479,2479,2485,2491,2491,2497,2497,2491,2491,2485,2485,2491,2491,2491,2497,2497,2504,2510,2516,2528,2528,2528,2541,2535,2541,2547,2535,2535,2535,2535,2547,2547,2547,2547,2554,2554,2560,2560,2560,2554,2560,2560,2567,2573,2573,2579,2573,2579,2573,2579,2586,2579,2593,2593,2593,2599,2599,2606,2606,2606,2606,2606,2606,2599,2593,2593,2586,2586,2586,2599,2606,2612,2626,2619,2626,2619,2606,2612,2606,2612,2619,2626,2626,2626,2633,2626,2626,2626,2626,2646,2653,2646,2639,2626,2626,2626,2639,2646,2646,2646,2653,2653,2653,2660,2667,2667,2667,2667,2674,2674,2681,2681,2674,2674,2674,2681,2688,2688,2695,2695,2681,2688,2688,2688,2688,2688,2695,2702,2717,2746,2799,0,0,1811,1801,1795,1795,1795,1798,1801,1801,1801,1801,1801,1801,1801,1798,0,0,0,0,1792,1801,1811,1814,1811,1808,1808,1801,1783,1755,1737,1714,1699,1669,1658,1647,1639,1629,1621,1611,1596,1581,1574,1571,1576,1581,1583,1583,1583,1579,0,0,1487,1480,1478,1476,1476,1476,1474,1476,1478,1478,1480,1482,1484,1487,0,0,0,0,0,0,0,0,0,0,0,0,0,0,0,0,0,0,0,0,0,0,0,773,769,768,767,766,764,764,763,760,756,753,748,746,745,745,744,743,742,741,740,739,737,736,734,731,729,727,725,724,722,721,720,720,721,722,0,0
0,0,0,0,0,0,0,0,0,0,0,0,1562,1562,1566,1569,1569,1571,1574,1576,1576,1576,1579,1576,1579,1579,1579,1581,1583,1586,1588,1588,1591,1591,1591,1588,1593,1593,1598,1601,1601,1606,1611,1616,0,0,0,0,0,0,2510,2497,2485,2485,2479,2467,2467,2467,2473,2479,2485,2479,2479,2473,2479,2485,2491,2497,2497,2497,2485,2485,2485,2485,2491,2485,2485,2491,2491,2497,2504,2510,2522,2528,2528,2541,2535,2554,2554,2541,2541,2541,2541,2547,2547,2547,2554,2554,2560,2560,2560,2567,2554,2554,2560,2560,2567,2573,2586,2579,2579,2579,2573,2579,2579,2586,2586,2586,2593,2593,2599,2606,2606,2606,2612,2612,2612,2612,2606,2599,2593,2593,2599,2599,2612,2619,2619,2633,2619,2619,2612,2612,2612,2619,2626,2626,2633,2633,2626,2626,2626,2626,2639,2646,2646,2639,2633,2633,2633,2639,2639,2653,2646,2660,2667,2667,2674,2674,2674,2674,2667,2674,2674,2681,2681,2681,2681,2681,2688,2688,2688,2695,2695,2688,2695,2688,2688,2688,2695,2702,2709,2717,2724,2768,0,0,1801,1798,1792,1795,1798,1798,1801,1805,1801,1805,1805,1805,1801,0,0,0,0,0,0,0,0,0,1827,0,1811,0,1758,1740,1722,1708,1694,1663,1655,1647,1637,1629,1621,1611,1598,1579,1569,1564,1566,1571,1574,1576,1576,1566,0,0,1484,1476,1474,1474,1472,1474,1474,1476,1478,1478,1482,1484,1484,1489,0,0,0,0,0,0,0,0,0,0,0,0,0,0,0,983,984,981,979,979,980,982,0,772,769,769,768,767,765,764,763,760,756,752,748,746,745,745,744,743,741,740,739,738,737,735,732,730,729,726,725,723,722,722,721,721,722,723,0,0
0,0,0,0,0,0,0,0,0,0,0,0,1566,1564,1566,1569,1569,1571,1576,1579,1579,1581,1581,1579,1579,1579,1579,1581,1583,1586,1586,1586,1591,1591,1593,1593,1596,1596,1598,1598,1598,1603,1614,1624,1658,0,0,0,0,0,2535,2510,2485,2485,2473,2450,2455,2455,2473,2479,2491,2491,2479,2479,2473,2479,2485,2491,2491,2491,2491,2497,2497,2491,2497,2491,2491,2497,2497,2497,2510,2510,2528,2535,2535,2541,2541,2554,2547,2547,2547,2547,2541,2547,2547,2547,2547,2554,2554,2567,2567,2567,2560,2560,2560,2560,2567,2573,2579,2573,2573,2567,2567,2573,2567,2579,2573,2579,2586,2579,2586,2599,2599,2612,2619,2619,2619,2619,2619,2606,2599,2593,2599,2599,2606,2612,2619,2633,2633,2633,2626,2619,2619,2619,2626,2626,2633,2633,2633,2626,2619,2619,2633,2639,2646,2639,2633,2633,2633,2639,2646,2653,2653,2667,2674,2674,2681,2674,2674,2674,2667,2681,2681,2681,2681,2688,2688,2688,2688,2688,2688,2695,2695,2695,2695,2695,2688,2695,2695,2709,2717,2724,2724,0,0,0,1805,1798,1798,1798,1801,1805,1805,1808,1805,1805,1805,1801,1801,0,0,0,0,0,0,0,0,0,0,0,0,0,0,1737,1714,1699,1677,1655,1650,1647,1639,1632,1621,1614,1603,1586,0,0,1569,1566,1566,1564,0,0,0,0,0,1465,1461,1463,1465,1465,1467,1472,1474,1476,1480,1480,1482,1489,0,0,0,0,0,0,0,0,0,0,0,0,0,0,984,983,982,979,977,977,976,976,975,0,0,0,772,769,767,765,764,761,756,753,749,747,745,745,744,743,741,740,739,738,737,735,732,729,728,726,725,723,722,722,721,722,722,723,0,0
0,0,0,0,0,0,0,0,0,0,0,0,1566,1564,1566,1571,1571,1574,1576,1579,1579,1581,1581,1581,1579,1579,1579,1581,1581,1586,1588,1588,1591,1593,1596,1596,1598,1598,1598,1598,1601,1606,1614,1632,1663,1702,1717,1746,1801,0,0,0,0,0,0,2432,2450,2455,2473,2479,2491,2491,2479,2479,2479,2485,2491,2491,2491,2491,2491,2491,2504,2504,2497,2491,2491,2491,2497,2504,2504,2510,2535,2535,2541,2547,2541,2554,2547,2554,2547,2547,2547,2547,2547,2547,2547,2554,2560,2567,2567,2560,2554,2547,2554,2560,2567,2573,2573,2573,2567,2567,2567,2567,2567,2573,2567,2573,2573,2573,2579,2586,2599,2612,2626,2633,2626,2626,2626,2619,2612,2599,2593,2593,2599,2606,2619,2633,2639,2639,2633,2626,2619,2619,2626,2633,2633,2639,2633,2626,2626,2619,2626,2639,2646,2646,2646,2646,2646,2639,2653,2660,2667,2674,2681,2674,2674,2674,2674,2667,2667,2681,2681,2681,2681,2681,2688,2688,2688,2688,2695,2695,2695,2695,2702,2695,2702,2702,2702,2709,2717,2717,2717,0,0,0,1805,1801,1798,1801,1805,1808,1808,1811,1811,1811,1811,1805,1801,1801,0,0,0,0,0,0,1814,1821,1821,0,0,0,0,1728,1705,1691,1680,1663,1655,1653,1647,1642,0,0,0,0,0,0,0,1564,1557,1552,0,0,0,1424,1430,1436,1445,1455,1455,1457,1461,1465,1467,1472,1476,1478,1478,1489,0,0,0,0,0,0,0,0,0,0,0,0,0,0,983,982,982,978,977,975,974,974,973,0,0,0,0,769,767,765,764,761,758,755,751,748,746,745,743,743,741,740,739,738,736,734,731,729,728,726,724,723,722,722,722,722,722,722,0,0
0,0,0,0,0,0,0,0,0,0,0,0,1569,1566,1569,1571,1571,1574,1579,1581,1581,1581,1581,1581,1581,1579,1581,1581,1583,1586,1588,1588,1593,1593,1596,1596,1598,1601,1603,1603,1603,1608,1621,1637,1655,1705,1731,1752,1798,1827,0,0,0,0,0,0,0,2455,2467,2479,2485,2485,2479,2485,2485,2485,2491,2491,2491,2491,2497,2504,2510,2504,2491,2485,2485,2485,2491,2497,2504,2516,2528,2535,2541,2541,2541,2547,2547,2554,2554,2547,2547,2547,2547,2547,2547,2554,2560,2573,2567,2560,2560,2554,2560,2567,2567,2567,2567,2560,2560,2560,2567,2573,2573,2573,2560,2567,2573,2573,2579,2579,2586,2599,2612,2626,2633,2633,2633,2626,2619,2612,2593,2593,2599,2606,2619,2626,2639,2639,2626,2619,2612,2612,2619,2626,2633,2639,2639,2633,2626,2626,2626,2633,2646,2646,2653,2653,2653,2653,2660,2667,2667,2674,2681,2674,2674,2674,2667,2667,2667,2674,2674,2674,2681,2681,2688,2695,2688,2688,2688,2681,2688,2695,2695,2702,2702,2709,2709,2717,2709,2709,2709,0,0,1821,1808,1805,1801,1805,1808,1808,1811,1814,1814,1814,1811,1805,1801,1801,1801,0,1805,0,1805,1805,1808,1811,1808,0,0,0,0,0,0,0,1677,0,0,0,0,0,0,0,1397,1397,1395,1393,1390,0,1393,1393,1393,1395,1401,1413,1422,1430,1434,1441,1443,1445,1451,1457,1463,1467,1470,1472,1472,0,0,0,0,0,0,0,0,0,0,0,0,0,0,985,982,981,980,977,976,974,973,973,972,972,0,0,0,0,0,0,0,761,758,756,753,750,747,746,744,743,741,740,739,738,736,733,730,728,726,726,724,723,722,722,722,722,723,722,0,0
0,0,0,0,0,0,0,0,0,0,0,0,1571,1566,1569,1571,1574,1576,1579,1579,1579,1581,1581,1581,1581,1581,1583,1583,1588,1588,1591,1591,1596,1596,1596,1598,1598,1601,1603,1603,1603,1611,1624,1637,1653,1711,1737,1752,1801,1840,1854,0,0,0,0,0,0,2461,2473,2479,2485,2491,2485,2491,2491,2491,2491,2491,2491,2497,2504,2510,2510,2504,2497,2485,2491,2491,2491,2504,2510,2528,2535,2541,2541,2541,2535,2547,2541,2547,2554,2547,2554,2554,2541,2541,2547,2554,2567,2573,2573,2560,2560,2554,2560,2567,2560,2567,2567,2560,2560,2567,2573,2579,2579,2573,2560,2567,2573,2579,2579,2586,2586,2599,2606,2619,2626,2626,2633,2633,2626,2619,2599,2593,2599,2599,2619,2626,2633,2639,2626,2619,2612,2612,2619,2633,2639,2639,2639,2633,2626,2619,2626,2633,2646,2646,2646,2653,2653,2660,2667,2674,2674,2674,2674,2667,2667,2667,2653,2667,2667,2674,2674,2674,2681,2674,2688,2695,2688,2688,2688,2674,2688,2688,2695,2702,2702,2709,2709,2717,2709,2709,2702,0,0,1827,1817,1811,1808,1811,1811,1811,1814,1814,1817,1817,1817,1814,1808,1805,1805,1805,1805,1805,1808,1808,1805,1805,1801,1798,0,0,0,0,0,0,0,0,0,0,1401,1401,1399,1395,1397,1397,1397,1395,1391,1391,1391,1391,1393,1395,1401,1407,1417,1428,1434,1438,1441,1441,1443,1445,1449,1457,1461,1465,1465,0,0,0,0,0,0,0,0,0,0,0,0,989,986,984,980,979,979,977,977,975,973,973,972,971,970,971,0,0,0,0,0,0,758,756,755,753,749,747,745,744,741,740,739,738,736,732,730,728,726,726,725,724,723,723,722,723,723,722,0,0
0,0,0,0,0,0,0,0,0,0,0,0,1569,1566,1571,1574,1576,1576,1576,1576,1576,1581,1583,1583,1586,1583,1586,1586,1588,1591,1591,1593,1596,1596,1598,1598,1601,1603,1606,1603,1606,1614,1626,1639,1653,1711,1734,1743,0,1847,1857,1888,0,0,0,0,0,2473,2473,2479,2479,2485,2491,2497,2504,2497,2497,2491,2497,2504,2504,2510,2504,2491,2491,2485,2485,2491,2491,2504,2510,2522,2535,2541,2541,2541,2535,2547,2547,2547,2554,2547,2547,2547,2541,2535,2541,2554,2560,2567,2567,2560,2560,2560,2560,2573,2573,2573,2573,2573,2567,2579,2586,2593,2586,2579,2567,2573,2573,2579,2586,2586,2593,2599,2606,2612,2619,2619,2626,2633,2626,2626,2612,2599,2606,2606,2612,2626,2633,2639,2626,2619,2619,2619,2626,2633,2633,2639,2639,2633,2633,2633,2639,2639,2653,2646,2653,2653,2653,2660,2667,2674,2674,2674,2674,2667,2667,2667,2660,2667,2674,2674,2674,2681,2681,2681,2688,2695,2695,2695,2688,2681,2688,2688,2695,2709,2709,2709,2709,2709,2709,2702,2695,0,0,1827,1821,1814,1811,1811,1808,1811,1811,1811,1814,1817,1814,1811,1811,1808,1805,1808,1805,1805,1805,1801,1792,1792,1792,1789,1783,0,0,0,0,1417,1411,1405,1403,1401,1401,1401,1401,1397,1397,1395,1393,1391,1390,1388,1390,1390,1393,1393,1401,1409,1418,1430,1434,1436,1438,1441,1441,1438,1441,1441,1445,1451,0,0,0,0,0,0,0,0,0,0,0,991,990,988,983,981,978,978,977,976,975,974,973,973,971,969,968,968,965,0,0,0,0,0,0,756,755,754,751,747,745,744,741,740,739,738,735,731,730,729,727,727,725,724,724,723,723,723,723,723,0,0
0,0,0,0,0,0,0,0,0,0,0,0,0,1569,1571,1574,1576,1576,1574,1576,1576,1581,1581,1581,1583,1583,1583,1583,1588,1588,1591,1593,1596,1596,1598,1598,1601,1606,1606,1606,1608,1614,1626,1642,1655,1722,1737,1746,1789,1837,1854,1888,0,0,2039,2055,0,2479,2485,2479,2485,2485,2491,2504,2504,2497,2497,2491,2497,2504,2510,2510,2497,2497,2497,2485,2491,2497,2497,2510,2516,2522,2535,2528,2528,2535,2535,2547,2554,2547,2554,2547,2547,2547,2541,2547,2547,2554,2560,2567,2567,2567,2567,2567,2567,2573,2573,2573,2579,2573,2579,2593,2593,2599,2599,2593,2579,2579,2586,2593,2593,2599,2593,2599,2599,2599,2612,2612,2626,2633,2633,2626,2619,2612,2612,2606,2612,2619,2626,2633,2633,2619,2612,2612,2619,2633,2639,2646,2646,2639,2646,2639,2639,2646,2646,2653,2653,2653,2653,2667,2667,2674,2674,2667,2674,2667,2667,2667,2660,2667,2674,2681,2681,2681,2681,2681,2695,2695,2695,2695,2681,2674,2681,2688,2695,2702,2702,2702,2702,2702,2702,2702,2681,0,1834,1827,1817,1814,1811,1811,1808,1811,1811,1808,1811,1814,1814,1814,1817,1814,1811,1811,1811,1811,1805,1798,1786,1783,1783,1783,1776,0,0,0,1417,1415,1411,1405,1403,1401,1401,1401,1401,1397,1397,1393,1391,1390,1386,1384,1384,1384,1386,1390,1399,1409,1424,1432,1434,1436,1436,1438,1438,1436,1438,1436,1434,1436,0,0,0,0,0,0,0,0,0,0,991,989,989,987,982,980,977,976,976,976,975,975,973,973,971,969,968,968,963,0,0,0,0,0,0,0,0,0,752,749,746,745,743,740,739,737,735,731,730,729,728,727,726,725,725,724,724,724,724,723,0,0
0,0,0,0,0,0,0,0,0,2432,2450,2444,0,0,0,0,0,0,0,0,1576,1581,1583,1581,1583,1586,1583,1586,1591,1591,1591,1593,1596,1596,1596,1598,1601,1603,1603,1603,1608,1611,1621,1642,1661,1714,1725,0,1786,0,0,0,0,2043,2059,2059,0,2479,2479,2485,2485,2485,2491,2504,2504,2504,2504,2497,2504,2504,2510,2504,2497,2497,2491,2491,2497,2497,2497,2510,2516,2522,2535,2535,2528,2547,2547,2560,2560,2554,2560,2554,2560,2554,2547,2547,2554,2560,2560,2567,2567,2567,2567,2567,2573,2579,2573,2579,2586,2586,2586,2593,2599,2606,2606,2606,2599,2593,2599,2606,2606,2606,2599,2599,2593,2599,2599,2606,2612,2626,2626,2626,2626,2619,2612,2612,2612,2626,2633,2639,2639,2626,2612,2612,2619,2626,2639,2646,2653,2646,2646,2646,2646,2646,2653,2646,2646,2653,2653,2660,2667,2667,2674,2667,2674,2667,2674,2674,2667,2674,2681,2688,2681,2688,2688,2688,2695,2702,2695,2695,2688,2688,2695,2695,2702,2709,2702,2702,2702,2702,2702,2702,2688,0,0,1827,1817,1814,1811,1811,1808,1811,1808,1808,1811,1811,1814,1821,1821,1817,1814,1817,1814,1814,1801,1795,1789,1783,1779,1779,1773,0,0,0,1415,1413,1411,1407,1405,1401,1399,1397,1395,1393,1395,1391,1391,1390,1386,1384,1382,1382,1384,1390,1401,1417,1426,1432,1434,1434,1434,1436,1436,1434,1434,1432,1428,0,0,0,0,0,0,0,0,0,0,992,989,987,986,984,981,979,976,975,976,975,974,975,973,973,971,968,967,966,962,959,0,0,0,0,0,0,0,0,0,750,747,746,744,741,740,737,736,733,731,730,729,728,727,726,726,724,725,724,724,724,0,0
0,0,0,0,0,0,0,0,2479,2467,2450,2444,2438,2438,2432,2432,2461,2479,0,2467,0,0,0,0,0,0,0,0,1591,1596,1596,1598,1596,1596,1598,1598,1598,1603,1603,1606,1608,1611,1614,1626,0,0,0,0,0,0,2063,2068,2063,2063,2076,2076,0,2473,2479,2485,2485,2491,2491,2497,2497,2504,2504,2504,2504,2504,2504,2497,2497,2491,2491,2485,2497,2497,2497,2510,2516,2522,2535,2535,2535,2547,2547,2554,2560,2554,2560,2554,2560,2560,2560,2554,2560,2560,2567,2567,2567,2567,2567,2567,2573,2579,2573,2586,2586,2586,2593,2599,2606,2612,2612,2612,2612,2606,2612,2612,2612,2612,2606,2599,2593,2599,2599,2606,2612,2626,2626,2626,2626,2619,2612,2612,2612,2619,2626,2639,2639,2633,2626,2619,2619,2633,2639,2653,2660,2646,2653,2653,2646,2653,2660,2653,2653,2660,2653,2660,2667,2667,2667,2667,2667,2667,2674,2674,2674,2674,2681,2681,2681,2688,2688,2688,2695,2702,2695,2695,2695,2688,2695,2702,2709,2709,2702,2695,2702,2702,2702,2702,2688,0,0,1824,1814,1814,1814,1811,1811,1811,1808,1808,1808,1808,1811,1817,1821,1821,1817,1817,1814,1814,1801,1795,1789,1783,1779,1776,1770,0,0,0,0,1407,1407,1405,1403,1403,1401,1397,1397,1393,1393,1390,1390,1388,1384,1384,1380,1380,1382,1390,1405,1424,1430,1432,1432,1432,1432,1434,1434,1432,1430,1428,1422,0,0,0,0,0,0,0,0,0,999,994,989,988,986,983,980,979,976,974,974,973,973,973,971,970,969,966,965,964,962,958,0,0,0,0,0,0,0,0,0,0,0,749,745,0,0,740,738,737,736,735,731,729,728,727,726,724,724,724,724,723,0,0
0,0,0,0,0,0,0,0,0,2491,2455,2455,2444,2432,2426,2426,2432,2450,2455,2455,2467,2461,2467,2467,2473,2467,0,0,0,0,1601,1601,1598,1598,1601,1601,1601,1603,1606,1606,1611,1611,1614,1619,0,0,0,0,2072,2072,2063,2072,2076,2076,2085,2085,0,2473,2485,2491,2491,2491,2491,2497,2497,2497,2504,2504,2497,2497,2504,2497,2504,2497,2497,2497,2504,2497,2504,2516,2516,2528,2535,2535,2535,2541,2547,2547,2560,2554,2560,2560,2560,2567,2573,2567,2567,2567,2567,2573,2573,2573,2573,2573,2573,2579,2573,2579,2579,2586,2599,2606,2606,2612,2606,2612,2619,2619,2619,2619,2619,2619,2619,2606,2606,2606,2606,2612,2619,2626,2626,2626,2626,2626,2619,2619,2612,2612,2626,2633,2639,2633,2619,2619,2619,2633,2639,2653,2660,2653,2660,2653,2653,2653,2660,2660,2660,2660,2653,2660,2667,2667,2667,2667,2660,2667,2674,2681,2681,2674,2674,2681,2681,2688,2688,2688,2695,2695,2695,2695,2695,2695,2695,2702,2709,2702,2702,2695,2695,2702,2702,2702,0,0,0,1824,1817,1814,1814,1814,1814,1814,1814,1814,1814,1811,1814,1817,1821,1821,1817,1814,1814,1811,1801,1795,1792,1789,1783,1776,1764,1755,0,0,0,0,1401,1401,1401,1401,1403,1401,1399,1395,1393,1390,1388,1388,1384,1384,1380,1380,1382,1393,1409,1428,1430,1434,1430,1430,1432,1434,1436,1434,1434,1432,0,0,0,0,0,0,0,0,1002,999,997,995,990,988,985,982,980,979,976,975,974,973,973,973,971,969,968,966,964,963,961,956,949,935,0,0,0,0,0,0,0,0,0,0,0,0,0,0,0,740,738,738,735,732,730,728,727,726,725,724,723,722,0,0
0,0,0,0,0,0,0,0,0,2491,2473,2467,2455,2438,2426,2426,2426,2444,2455,2455,2467,2461,2461,2467,2467,2467,0,0,0,0,0,1601,1598,1598,1601,1601,1603,1603,1606,1608,1611,1614,1614,1611,0,0,0,2055,2072,2076,2072,2072,2076,2076,2080,2089,0,2473,2485,2491,2491,2491,2491,2491,2491,2497,2504,2510,2504,2497,2497,2497,2504,2497,2497,2504,2504,2504,2510,2516,2516,2528,2541,2541,2541,2541,2547,2547,2554,2554,2554,2560,2567,2567,2573,2567,2573,2567,2560,2573,2567,2573,2579,2573,2573,2579,2573,2579,2579,2586,2593,2593,2599,2599,2606,2606,2619,2619,2619,2626,2626,2626,2626,2619,2612,2612,2606,2612,2612,2619,2619,2626,2626,2626,2619,2619,2619,2619,2626,2633,2639,2639,2626,2626,2633,2639,2646,2660,2660,2653,2660,2660,2653,2660,2660,2653,2660,2660,2660,2660,2667,2674,2674,2674,2674,2674,2681,2688,2688,2681,2674,2674,2674,2681,2688,2688,2695,2702,2702,2702,2695,2702,2709,2717,2717,2717,2717,2702,2702,2709,2709,2702,0,0,0,1821,1814,1811,1811,1814,1814,1814,1814,1814,1814,1811,1814,1814,1814,1821,1814,1814,1811,1811,1811,1805,1801,1798,1789,1779,1767,1758,0,0,0,0,1397,1397,1399,1399,1401,1399,1399,1397,1395,1391,1390,1388,1384,1384,1380,1378,1382,1395,1415,1430,1432,1432,1428,1426,1426,1430,1434,0,0,0,0,0,0,0,0,0,1018,1009,1003,1000,997,993,989,987,983,980,979,979,975,974,973,973,972,971,969,968,968,966,964,963,962,958,953,0,0,0,0,0,0,0,0,0,0,0,0,0,0,0,0,0,0,743,0,0,733,730,728,726,724,723,722,720,0,0
0,0,0,0,0,0,0,0,0,2479,2467,2467,2461,2444,2432,2426,2426,2438,2450,2455,2461,2455,2455,2473,2473,2467,0,0,0,0,1606,1601,1601,1601,1603,1603,1603,1603,1606,1611,1614,1616,1616,1614,0,0,0,2055,2072,2076,2072,2072,2076,2076,2080,2089,0,2473,2479,2485,2485,2491,2491,2491,2491,2497,2504,2504,2497,2497,2491,2497,2504,2497,2504,2510,2504,2510,2510,2516,2516,2528,2541,2547,2541,2541,2547,2541,2554,2554,2554,2560,2560,2560,2567,2567,2573,2573,2567,2567,2567,2567,2573,2567,2573,2573,2573,2579,2579,2586,2586,2586,2593,2593,2599,2606,2619,2619,2619,2619,2626,2633,2633,2633,2633,2619,2612,2612,2612,2612,2619,2626,2626,2633,2626,2626,2619,2626,2633,2639,2646,2646,2639,2633,2633,2646,2639,2653,2653,2646,2653,2653,2653,2660,2660,2660,2667,2660,2660,2660,2660,2674,2667,2667,2674,2674,2681,2688,2681,2681,2674,2674,2681,2688,2688,2688,2695,2695,2695,2702,2702,2717,2724,2731,2724,2717,2717,2709,2709,2717,2717,2709,0,0,1821,1821,1817,1814,1814,1811,1814,1814,1814,1814,1814,1811,1814,1814,1814,1817,1811,1811,1811,1808,1811,1808,1805,1801,1795,1783,1764,1755,0,0,0,1397,1393,1393,1393,1393,1397,1399,1401,1399,1397,1393,1391,1390,1386,1384,1382,1380,1386,1399,1417,1428,1430,1430,1428,1428,1426,0,0,0,0,0,0,0,0,0,1030,1022,1018,1009,1003,998,994,991,989,986,982,978,978,977,975,974,973,972,971,970,968,967,967,966,964,963,962,959,958,0,0,0,0,0,0,0,0,830,824,0,0,808,806,0,0,0,0,0,0,0,0,0,0,726,724,723,722,719,0,0
0,0,0,0,0,0,0,0,0,2426,2426,2444,2450,2438,2438,2432,2426,2444,2455,2455,2461,2455,2461,2479,2485,2485,0,0,0,0,1603,1601,1598,1601,1603,1603,1606,1606,1608,1611,1614,1616,1619,1614,0,0,0,0,2080,2080,2080,2080,2080,2080,2085,2089,0,2479,2485,2485,2485,2491,2491,2497,2497,2497,2504,2497,2497,2491,2491,2497,2497,2497,2510,2516,2510,2516,2516,2516,2516,2535,2541,2547,2554,2547,2547,2547,2554,2554,2554,2560,2560,2560,2567,2573,2579,2579,2573,2573,2573,2567,2567,2567,2567,2573,2573,2579,2579,2579,2579,2586,2586,2579,2586,2599,2606,2612,2619,2619,2633,2639,2639,2639,2639,2626,2612,2612,2606,2606,2612,2626,2626,2633,2633,2626,2626,2633,2639,2646,2653,2646,2639,2633,2633,2639,2639,2646,2646,2639,2646,2646,2646,2660,2660,2660,2667,2667,2667,2660,2653,2667,2674,2674,2681,2681,2688,2688,2681,2681,2681,2681,2688,2688,2688,2688,2695,2695,2702,2709,2709,2717,2724,2724,2724,2717,2717,2709,2709,2709,2709,0,0,0,1821,1821,1817,1814,1811,1814,1811,1814,1814,1811,1814,1814,1817,1817,1821,1817,1811,1808,1808,1808,1811,1811,1805,1801,1795,1783,1761,1755,0,0,0,1393,1390,1390,1388,1390,1393,1397,1399,1397,1397,1393,1391,1390,1386,1384,1382,1382,1390,1399,1417,1426,1430,1432,1432,0,0,0,0,0,0,0,0,0,0,1034,1026,1020,1015,1009,1003,999,993,0,987,984,979,977,975,975,973,973,972,970,970,969,968,967,967,966,963,962,962,960,960,958,0,0,0,0,0,0,0,827,823,816,812,808,805,803,0,798,0,0,0,0,0,0,0,0,724,724,722,720,0,0
0,0,0,0,0,0,0,0,0,2450,2432,2432,2438,2438,2432,2432,2426,2444,2461,2455,2461,2455,2455,2473,2485,2479,0,0,0,0,1593,1598,1598,1601,1606,1606,1606,1606,1608,1614,1616,1619,1619,1614,0,0,0,0,2085,2085,2080,2080,2076,2076,2080,2085,2080,2485,2479,2485,2485,2491,2491,2497,2497,2504,2504,2497,2497,2491,2491,2497,2497,2504,2510,2510,2510,2516,2516,2516,2522,2535,2547,2554,2554,2554,2554,2554,2560,2560,2560,2560,2560,2560,2567,2573,2579,2579,2573,2573,2567,2560,2567,2567,2567,2573,2573,2579,2579,2579,2579,2579,2579,2579,2586,2593,2599,2606,2612,2619,2626,2639,2639,2639,2639,2626,2612,2612,2606,2606,2619,2633,2639,2639,2639,2639,2639,2639,2646,2653,2660,2653,2646,2639,2639,2646,2646,2646,2646,2639,2639,2646,2646,2660,2667,2667,2674,2667,2667,2660,2660,2667,2674,2674,2681,2688,2688,2688,2688,2688,2681,2688,2695,2695,2702,2695,2695,2695,2702,2709,2709,2717,2724,2731,2724,2724,2724,2717,2717,2717,2709,0,0,0,1827,1824,1817,1817,1814,1811,1811,1811,1814,1814,1814,1817,1817,1817,1817,1821,1814,1808,1808,1811,1811,1808,1805,1798,1789,1779,1764,1761,0,0,0,1391,1388,1384,1380,1380,1384,1390,1393,1395,1395,1393,1391,1390,1388,1386,1384,1386,1393,1403,1417,1424,1428,1430,1432,0,0,0,0,0,0,0,0,0,0,1030,1023,1019,1014,1009,1004,999,992,988,986,983,979,976,974,974,973,971,970,968,967,966,966,965,965,964,963,962,962,959,959,958,0,0,0,0,0,0,0,825,822,814,811,808,805,802,800,798,795,793,0,0,0,0,0,0,0,0,0,0,0,0
0,0,0,0,0,0,0,0,0,2461,2438,2438,2444,2438,2444,2438,2438,2450,2455,2450,2455,2450,2455,2467,2485,2479,0,0,0,0,1593,1598,1601,1601,1606,1606,1608,1611,1608,1611,1616,1616,1619,0,0,0,0,0,2085,2085,2080,2085,2076,2076,2080,2085,0,2491,2485,2485,2485,2491,2497,2504,2504,2504,2504,2504,2497,2491,2497,2504,2497,2504,2504,2504,2510,2510,2516,2516,2528,2535,2547,2554,2560,2554,2560,2560,2560,2567,2560,2560,2560,2567,2573,2579,2586,2586,2579,2573,2567,2567,2573,2567,2573,2573,2573,2579,2586,2586,2586,2586,2579,2573,2586,2586,2593,2599,2606,2612,2619,2633,2633,2633,2639,2626,2619,2612,2606,2606,2619,2626,2639,2639,2639,2639,2639,2646,2653,2660,2660,2653,2653,2646,2639,2646,2646,2646,2646,2639,2639,2646,2646,2660,2674,2674,2674,2674,2667,2660,2660,2667,2674,2681,2681,2688,2688,2688,2681,2681,2681,2688,2695,2695,2695,2695,2695,2695,2709,2709,2709,2717,2724,2724,2717,2717,2717,2717,2717,2724,2717,0,0,0,1830,1827,1821,1817,1814,1811,1811,1811,1814,1814,1817,1817,1817,1821,1821,1817,0,0,0,0,0,0,0,0,1786,1773,1761,1758,0,0,0,1393,1382,1376,1373,1371,1373,1376,1384,1393,1395,1393,1393,1390,1388,1386,1386,1391,1399,1405,1417,1422,1426,1428,0,0,0,0,0,0,0,0,0,0,1035,1026,1021,1018,1013,1008,1005,1000,992,988,986,983,980,977,973,973,970,968,966,964,964,963,963,962,961,960,959,959,959,957,957,955,0,0,0,0,0,0,0,823,819,813,811,808,805,802,799,795,793,789,784,781,774,768,0,0,0,0,0,0,0,0
0,0,0,0,0,0,0,0,0,2461,2444,2450,2455,2450,2450,2444,2444,2455,2450,2450,2444,2444,2455,2455,2479,2473,0,0,0,0,1591,1598,1603,1606,1608,1611,1611,1614,1611,1614,1619,1616,1619,0,0,0,0,0,2089,2089,2089,2093,2085,2085,2093,2089,0,2497,2491,2491,2497,2497,2504,2510,2510,2510,2504,2504,2504,2497,2504,2504,2510,2510,2510,2510,2510,2516,2516,2528,2535,2541,2547,2554,2560,2554,2567,2567,2567,2567,2567,2560,2560,2567,2579,2579,2586,2586,2579,2579,2573,2573,2573,2579,2579,2579,2579,2586,2586,2586,2586,2586,2579,2573,2579,2586,2586,2599,2606,2612,2626,2633,2633,2633,2633,2633,2619,2612,2606,2606,2619,2633,2639,2639,2639,2646,2646,2646,2653,2660,2653,2660,2653,2646,2646,2653,2653,2653,2653,2646,2646,2646,2646,2660,2667,2674,2681,2681,2667,2667,2667,2674,2681,2681,2688,2688,2688,2688,2688,2681,2681,2688,2695,2695,2695,2688,2688,2702,2709,2717,2717,2717,2717,2717,2709,2717,2717,2717,2717,2717,2717,0,0,0,1837,1834,1827,1821,1821,1817,1817,1817,1817,1817,1821,1821,1821,1817,1817,0,0,0,1538,1538,1538,1536,1536,1536,0,1767,0,0,0,0,0,0,1376,1369,1364,1360,1364,1369,1373,1384,1390,1391,1391,1391,1390,1388,1390,1395,1403,1409,1418,1420,1422,0,0,0,0,0,0,0,0,0,0,1039,1034,1026,1021,1018,1014,1009,1006,1002,993,989,986,983,979,976,973,972,968,966,963,962,961,961,960,959,958,954,953,954,953,951,949,946,0,0,0,0,0,0,0,823,816,812,810,808,806,803,798,793,791,785,782,778,772,767,764,762,0,0,0,0,0,0
0,0,0,0,0,0,0,0,0,2461,2450,2455,2455,2444,2444,2444,2444,2455,2455,2444,2438,2432,2450,2455,2473,2473,0,0,0,0,1583,1593,1603,1606,1608,1611,1611,1614,1614,1616,1621,1619,1621,0,0,0,0,0,2089,2089,2089,2089,2085,2085,2093,2093,2102,0,2504,2497,2510,2510,2510,2510,2510,2516,2516,2510,2510,2504,2510,2510,2510,2516,2510,2510,2516,2522,2522,2535,2535,2541,2547,2547,2560,2554,2560,2573,2573,2573,2567,2560,2560,2567,2579,2579,2586,2586,2579,2573,2573,2573,2579,2579,2579,2586,2586,2586,2593,2586,2593,2586,2586,2579,2579,2579,2586,2599,2599,2619,2626,2633,2633,2639,2639,2633,2633,2612,2612,2612,2626,2639,2646,2639,2639,2639,2639,2639,2646,2653,2653,2653,2653,2653,2653,2653,2660,2653,2653,2653,2653,2653,2660,2660,2667,2674,2674,2674,2674,2674,2674,2674,2681,2681,2681,2695,2688,2688,2688,2681,2688,2695,2695,2702,2695,2688,2688,2702,2709,2709,2717,2709,2717,2717,2717,2724,2717,2724,2724,2724,2724,2717,0,0,1837,1834,1827,1817,1821,1817,1821,1821,1824,1821,1821,1817,1821,0,0,0,1529,1534,1534,1534,1531,1531,1529,1531,0,0,0,0,0,0,0,0,0,0,1354,1354,1358,1364,1369,1378,1384,1390,1391,1391,1391,1393,1395,1401,1407,1413,1420,1420,1422,0,0,0,0,0,0,0,0,0,0,1038,1034,1024,1020,1018,1013,1008,1006,1002,995,990,988,985,983,977,973,972,968,967,964,962,959,956,956,953,951,947,946,945,945,945,944,935,928,0,0,0,0,0,827,822,815,811,809,806,804,800,794,791,785,782,778,774,770,765,763,761,758,756,755,754,0,0
0,0,0,0,0,0,0,0,0,2467,2461,2467,2461,2450,2450,2438,2450,2450,2450,2450,2438,2432,2455,2455,2473,2473,0,0,0,0,1593,1598,1603,1606,1611,1611,1614,1619,1616,1616,1621,1619,1621,0,0,0,0,2093,2093,2093,2089,2089,2089,2089,2093,2097,0,0,2504,2504,2516,2516,2516,2516,2516,2522,2516,2516,2516,2510,2510,2510,2510,2510,2510,2516,2522,2528,2535,2541,2535,2541,2547,2541,2554,2554,2567,2579,2579,2579,2573,2567,2573,2579,2586,2586,2586,2586,2579,2579,2579,2586,2586,2586,2593,2593,2593,2606,2606,2599,2599,2593,2593,2586,2579,2586,2586,2593,2599,2612,2619,2626,2633,2639,2639,2639,2639,2626,2619,2619,2626,2639,2646,2639,2639,2639,2639,2639,2646,2646,2653,2653,2653,2653,2653,2653,2653,2653,2660,2660,2660,2660,2660,2667,2667,2674,2674,2674,2674,2674,2674,2681,2681,2681,2688,2695,2695,2688,2688,2681,2695,2695,2695,2695,2688,2688,2688,2695,2709,2709,2709,2709,2717,2717,2717,2724,2724,2731,2731,2731,2731,0,0,0,1834,1830,1824,1817,1821,1817,1821,1824,1824,1821,1817,1814,0,0,0,1531,1527,1527,1527,1529,1529,1529,1529,1531,0,0,0,0,0,0,0,0,0,0,0,1351,1354,1360,1365,1373,1380,1386,1391,1391,1393,1397,1399,1407,1411,1411,0,0,0,0,0,0,0,0,0,0,0,0,0,1038,1035,1025,1021,1018,1014,1009,1007,1004,999,993,989,987,986,982,976,973,971,969,965,962,960,957,955,951,948,945,944,942,939,935,933,930,926,922,0,0,0,0,824,821,814,811,808,805,802,795,791,786,783,780,776,773,768,765,763,760,758,756,755,753,0,0
0,0,0,0,0,0,0,0,0,2438,2444,2461,2455,2455,2455,2450,2455,2467,2461,2467,2444,2438,2450,2455,2467,2467,0,0,0,0,1598,1601,1606,1608,1614,1614,1614,1616,1616,1616,1621,1619,1619,0,0,0,0,2097,2097,2097,2093,2093,2093,2093,2097,2097,0,0,2504,2510,2516,2516,2516,2510,2510,2516,2522,2516,2516,2516,2504,2510,2510,2516,2516,2522,2528,2528,2535,2541,2535,2547,2554,2541,2554,2560,2567,2579,2586,2586,2579,2573,2579,2586,2586,2586,2586,2586,2579,2586,2586,2593,2593,2593,2599,2599,2606,2612,2612,2606,2606,2599,2593,2593,2593,2593,2593,2593,2606,2612,2619,2626,2639,2646,2646,2646,2639,2626,2626,2626,2633,2639,2646,2646,2639,2639,2633,2633,2639,2646,2646,2653,2653,2653,2653,2660,2653,2653,2653,2660,2660,2660,2667,2667,2667,2667,2674,2674,2674,2674,2674,2674,2681,2674,2681,2688,2688,2688,2688,2688,2695,2702,2709,2702,2695,2695,2695,2702,2709,2709,2709,2709,2717,2717,2724,2731,2724,2731,2731,2731,2731,0,0,0,1837,1827,1824,1817,1821,1821,1824,1830,1830,1827,1824,1814,0,0,1527,1520,1518,1518,1518,1518,1522,0,0,0,0,0,0,0,0,0,1270,1269,1270,1266,0,0,0,1360,1367,1373,1380,1384,1390,1393,1397,1403,1405,1409,0,0,0,0,0,0,0,0,0,0,0,0,0,0,0,1041,1036,1027,1022,1019,1017,1011,1008,1006,1002,999,993,989,988,986,980,978,976,975,973,968,962,959,956,951,946,944,941,934,931,930,928,927,924,922,0,0,0,0,823,819,813,810,805,803,800,794,790,784,782,779,775,772,768,765,762,760,758,756,755,753,0,0
0,0,0,0,0,0,0,0,0,2438,2438,2444,2444,2450,2444,2450,2455,2467,2467,2467,2455,2450,2455,2455,2467,2461,0,0,0,0,1598,1601,1603,1608,1611,1614,1614,1616,1614,1614,1619,1619,1619,0,0,0,2110,2102,2097,2097,2093,2089,2089,2089,2097,2102,0,2510,2510,2516,2522,2516,2516,2516,2510,2516,2522,2522,2522,2522,2510,2516,2516,2516,2522,2522,2528,2528,2535,2541,2541,2554,2554,2547,2560,2560,2573,2579,2579,2579,2579,2573,2579,2586,2586,2586,2586,2586,2586,2593,2593,2599,2599,2593,2606,2612,2612,2619,2619,2612,2612,2606,2606,2606,2606,2606,2606,2599,2599,2606,2612,2626,2639,2646,2646,2646,2646,2633,2633,2633,2633,2639,2646,2646,2639,2639,2633,2633,2639,2639,2646,2653,2653,2653,2653,2660,2660,2660,2660,2660,2667,2667,2667,2674,2667,2667,2674,2667,2674,2674,2674,2674,2674,2674,2681,2688,2688,2688,2688,2688,2695,2709,2709,2709,2695,2695,2695,2695,2702,2695,2709,2709,2724,2731,2731,2739,2731,2731,2731,2724,2717,0,0,0,1834,1824,1817,1817,1821,1821,1824,1830,1834,1830,1821,0,0,0,1520,1513,1513,1506,1504,1504,0,0,0,0,0,0,0,0,0,1281,1273,1267,1266,1262,1261,1262,1261,0,1364,1373,1378,1384,1390,1393,1401,1407,1409,0,0,0,0,0,0,0,0,0,0,0,0,0,0,0,0,1043,1037,1031,1024,1021,1017,1014,1011,1009,1007,1005,1003,997,993,989,987,984,977,977,975,972,966,960,956,951,946,942,0,0,927,925,923,922,921,919,920,0,0,0,0,818,812,808,803,800,795,792,788,784,781,778,775,772,767,763,761,760,758,756,755,753,0,0
0,0,0,0,0,0,0,0,0,2421,2426,2426,2432,2432,2444,2455,2461,2467,2467,2467,2455,2455,2461,2461,2467,2461,0,0,0,0,1603,1606,1608,1608,1614,1614,1614,1616,1616,1616,1619,1616,1616,0,0,0,2106,2097,2097,2093,2093,2093,2093,2093,2097,2102,0,2510,2516,2516,2516,2516,2516,2510,2510,2516,2522,2528,2528,2528,2516,2516,2510,2516,2516,2522,2528,2535,2535,2541,2547,2554,2554,2547,2554,2560,2567,2579,2579,2579,2579,2579,2586,2586,2586,2593,2593,2593,2593,2599,2606,2606,2606,2606,2612,2612,2619,2619,2619,2619,2619,2612,2612,2619,2619,2619,2619,2606,2599,2599,2606,2626,2633,2646,2646,2639,2639,2639,2633,2639,2633,2639,2646,2646,2639,2646,2639,2639,2639,2639,2646,2653,2653,2653,2653,2653,2660,2660,2660,2660,2660,2660,2667,2674,2674,2674,2674,2674,2674,2674,2674,2674,2674,2674,2681,2681,2688,2688,2688,2695,2695,2709,2709,2709,2702,2702,2702,2702,2709,2702,2709,2717,2724,2731,2739,2739,2739,2739,2739,2717,2717,0,0,0,1837,1830,1821,1817,1817,1817,1824,1830,1834,1840,1827,0,0,1515,1513,1509,1506,1500,1493,0,0,0,0,0,0,0,0,1283,1280,1273,1266,1261,1259,1255,1253,1255,1255,1252,0,0,1376,1378,1382,1388,1395,0,0,0,0,0,0,0,0,0,0,0,0,0,0,0,0,0,0,1046,1040,1036,1030,1025,1020,1018,1017,1016,1014,1014,1011,1006,1004,1000,991,989,980,977,974,972,968,961,0,0,0,935,929,924,922,921,920,919,917,917,917,0,0,0,0,817,812,805,802,800,794,791,786,782,780,776,774,771,765,763,761,760,758,756,755,752,0,0
0,0,0,0,0,0,0,0,0,2415,0,2426,2444,2438,2450,2467,2473,2473,2473,2467,2461,2455,2461,2467,2473,2438,0,0,0,0,0,1608,1608,1611,1614,1616,1616,1616,1616,1616,1619,1619,1616,0,0,0,0,2089,2089,2089,2089,2093,2089,2093,2097,2097,0,2510,2516,2516,2516,2510,2510,2510,2510,2516,2522,2522,2535,2528,2516,2516,2510,2516,2522,2522,2522,2528,2528,2535,2547,2554,2554,2560,2554,2567,2573,2579,2586,2586,2586,2593,2593,2586,2586,2586,2586,2593,2599,2606,2612,2612,2612,2612,2619,2619,2612,2619,2619,2619,2619,2626,2626,2633,2633,2626,2626,2612,2606,2606,2612,2626,2633,2639,2646,2639,2646,2639,2639,2639,2639,2639,2639,2646,2646,2646,2646,2639,2639,2646,2653,2653,2653,2660,2660,2660,2660,2660,2660,2660,2660,2660,2667,2674,2674,2674,2674,2674,2674,2674,2674,2674,2674,2681,2681,2688,2695,2695,2688,2695,2702,2709,2717,2709,2702,2702,2702,2709,2709,2695,2709,2717,2724,2731,2739,2739,2739,2739,2739,2724,2724,0,0,1840,1840,1834,1827,1821,1821,1817,1824,1830,1834,1834,1824,0,0,1506,1509,1506,1506,1498,0,0,0,0,0,0,0,0,1283,1278,1273,1269,1262,1258,1255,1248,1247,1248,1248,1247,1250,0,0,1375,1376,1378,0,0,0,0,0,0,0,0,0,0,0,0,0,0,0,0,0,0,0,0,1042,1037,1033,1029,1024,1021,1020,1020,1018,1019,1019,1017,1015,1007,999,989,977,973,0,0,0,0,0,0,0,925,922,920,919,918,918,918,917,917,917,0,0,0,0,818,811,804,801,798,793,791,785,782,779,776,773,771,765,763,761,760,759,756,754,751,0,0
0,0,0,0,0,0,0,0,0,0,2421,2426,2438,2444,2450,2473,2479,2479,2467,2461,2455,2461,2467,2467,2473,0,0,0,0,0,1603,1608,1606,1611,1616,1616,1619,1619,1619,1619,1621,1621,0,0,0,0,0,2085,2085,2085,2085,2093,2093,2093,2097,0,2510,2510,2510,2516,2510,2504,2504,2504,2510,2516,2516,2516,2522,2522,2522,2516,2516,2516,2516,2516,2522,2522,2522,2535,2554,2554,2554,2560,2560,2567,2579,2579,2586,2586,2593,2593,2593,2586,2586,2593,2593,2599,2606,2612,2612,2612,2612,2606,2606,2612,2612,2619,2619,2619,2626,2626,2633,2633,2639,2639,2639,2626,2619,2612,2612,2626,2626,2639,2639,2639,2639,2639,2639,2646,2639,2639,2646,2646,2646,2646,2646,2639,2646,2646,2646,2653,2653,2653,2660,2660,2660,2660,2660,2660,2660,2660,2660,2667,2674,2674,2681,2674,2667,2667,2674,2674,2674,2681,2681,2695,2695,2695,2695,2695,2702,2709,2717,2717,2709,2709,2702,2702,2702,2702,2709,2724,2724,2739,2746,2739,2739,2746,2739,2717,0,0,0,1834,1834,1834,1827,1821,1821,1821,1827,1830,1834,1827,1811,0,1495,1504,1506,1506,1504,0,0,0,0,0,0,0,0,1281,1280,1273,1269,1264,1259,1255,1248,1245,1242,1244,1244,1242,1242,1239,1233,0,0,0,0,0,0,0,0,0,0,0,0,0,0,0,0,0,0,0,0,0,0,0,1041,1038,1036,1035,1033,1027,1025,1024,1023,1023,1022,1021,1018,1012,0,0,960,0,0,0,0,0,0,922,921,919,918,918,919,917,917,918,917,916,916,915,916,0,0,0,0,803,801,797,793,790,784,782,779,775,772,769,765,763,761,759,757,755,753,750,0,0
0,0,0,0,0,0,0,0,0,2432,2432,2438,2444,2444,2450,2467,2485,2491,2491,2479,2473,2473,2479,2473,2479,0,0,0,0,0,1611,1611,1608,1611,1614,1614,1619,1621,1624,1624,1624,1626,0,0,0,0,0,2085,2080,2080,2085,2093,2097,2097,2097,2089,0,2504,2504,2504,2497,2497,2504,2504,2510,2516,2516,2516,2522,2522,2516,2516,2522,2522,2516,2516,2516,2516,2522,2528,2541,2560,2554,2560,2567,2573,2579,2586,2593,2599,2606,2599,2593,2586,2586,2593,2593,2599,2606,2612,2612,2612,2606,2606,2606,2599,2606,2612,2619,2626,2626,2633,2633,2639,2639,2646,2646,2633,2626,2626,2619,2626,2626,2626,2633,2633,2639,2639,2639,2646,2639,2646,2646,2646,2646,2646,2646,2639,2639,2646,2646,2660,2653,2660,2660,2660,2660,2660,2660,2660,2667,2667,2667,2674,2674,2674,2681,2674,2674,2667,2681,2674,2674,2681,2688,2688,2695,2695,2695,2702,2709,2709,2717,2717,2709,2709,2709,2709,2709,2709,2717,2731,2731,2739,2746,2739,2739,2746,2739,2717,0,0,1834,1834,1830,1830,1830,1824,1824,1824,1827,1830,1830,1817,0,0,1495,1502,1504,1504,1504,1498,0,0,0,0,0,0,1281,1277,1273,1269,1264,1259,1255,1250,1245,1241,1238,1238,1239,1238,1236,1233,1229,0,0,0,0,0,0,0,0,0,0,0,0,0,0,0,0,0,0,0,0,0,0,0,0,0,1039,1039,1039,1037,1035,1034,1031,1030,1026,1023,1019,0,0,0,948,945,933,928,922,922,920,918,918,918,917,917,918,917,917,917,916,916,915,913,913,0,0,0,0,803,801,797,793,790,784,782,779,775,772,769,765,764,761,758,756,753,0,747,0,0
0,0,0,0,0,0,0,0,0,0,0,2444,2450,2450,2450,2455,2467,2479,2491,2491,2485,2491,2485,2479,2479,0,0,0,0,1606,1608,1611,1608,1611,1614,1614,1619,1621,1626,1626,1629,1629,0,0,0,0,0,2089,2085,2085,2089,2093,2102,2102,2097,2085,0,2497,2497,2497,2497,2497,2510,2510,2516,2516,2516,2516,2522,2522,2516,2516,2522,2522,2522,2522,2516,2516,2516,2522,2535,2547,2547,2554,2560,2573,2579,2586,2593,2599,2606,2606,2593,2586,2586,2593,2599,2606,2612,2612,2612,2606,2599,2599,2599,2599,2599,2599,2612,2626,2626,2633,2633,2633,2639,2639,2646,2639,2639,2633,2626,2626,2626,2626,2633,2639,2639,2646,2646,2646,2646,2646,2646,2653,2653,2646,2646,2639,2639,2646,2646,2653,2660,2653,2660,2667,2660,2667,2667,2667,2667,2667,2667,2674,2681,2681,2681,2681,2674,2674,2681,2681,2681,2681,2695,2702,2709,2702,2702,2702,2717,2717,2717,2717,2709,2709,2709,2709,2709,2709,2717,2724,2731,2739,2746,2739,2739,2739,2739,2717,0,0,1827,1834,1827,1827,1827,1824,1827,1827,1827,1827,1824,1811,0,1487,1493,1498,1500,1500,1498,1476,0,0,0,0,0,1283,1277,1270,1267,1264,1259,1256,1253,1248,1242,1238,1235,1235,1235,1233,1233,1232,1227,1223,0,0,0,0,0,0,0,0,0,0,0,0,0,0,0,0,0,0,0,0,0,0,0,0,0,1042,1042,1040,1039,1037,1036,1035,1028,0,0,0,0,0,944,935,930,926,922,920,919,917,917,917,916,917,917,917,917,917,916,916,914,913,913,0,0,0,0,805,802,798,793,790,785,782,779,775,772,769,765,764,761,757,754,751,0,0,0,0
0,0,0,0,0,0,0,0,0,0,0,0,2438,2432,0,2444,2467,0,2497,2504,2504,2491,2485,2485,2479,0,0,0,0,1608,1608,1614,1611,1614,1616,1616,1621,1624,1626,1632,1634,1639,0,0,0,0,0,2093,2089,2085,2089,2093,2097,2102,2097,0,2485,2491,2491,2497,2497,2504,2510,2510,2516,2516,2516,2516,2516,2516,2516,2522,2528,2522,2522,2522,2516,2522,2522,2541,2547,2560,2560,2560,2567,2573,2579,2579,2593,2599,2599,2599,2593,2586,2586,2599,2606,2612,2606,2606,2606,2599,2593,2593,2593,2586,2599,2599,2612,2626,2626,2633,2633,2639,2639,2646,2646,2646,2646,2646,2639,2633,2626,2626,2633,2639,2646,2653,2653,2660,2653,2653,2653,2653,2653,2646,2646,2639,2639,2646,2646,2653,2660,2660,2660,2674,2667,2667,2674,2667,2674,2674,2667,2674,2681,2681,2681,2681,2674,2681,2681,2681,2674,2681,2695,2702,2702,2709,2702,2695,2717,2717,2717,2724,2717,2717,2717,2717,2717,2724,2724,2731,2739,2739,2746,2739,2739,2739,2731,2709,0,0,1830,1834,1827,1824,1824,1821,1824,1827,1830,1827,1817,1805,0,1484,1487,1491,1491,1491,1484,1470,1455,0,0,0,0,0,1272,1264,1262,1258,1255,1252,1248,1247,1241,1238,1235,1232,1232,1230,1229,1226,1223,1219,1213,0,0,0,0,0,0,0,0,0,0,0,0,0,0,0,0,0,0,0,0,0,0,0,0,1043,1042,1041,1040,1039,1037,1037,1034,0,0,0,0,0,943,933,929,926,922,920,919,917,917,916,915,915,915,915,916,916,915,914,913,912,911,0,0,0,0,0,0,798,794,790,785,782,779,775,772,769,766,764,761,756,753,749,0,0,0,0
0,0,0,0,0,0,0,0,0,0,0,0,0,0,0,0,0,0,0,0,0,2522,0,0,0,0,0,0,0,1608,1611,1616,1616,1616,1619,1619,1621,1621,1626,1632,1634,1639,0,0,0,0,2110,2102,2097,2089,2089,2089,2097,2102,2097,0,2491,2491,2497,2497,2504,2510,2516,2516,2522,2516,2516,2516,2516,2516,2516,2522,2528,2522,2522,2528,2522,2528,2541,2554,2560,2560,2560,2560,2567,2573,2579,2579,2593,2593,2593,2593,2586,2586,2593,2599,2606,2606,2606,2599,2593,2593,2586,2586,2593,2593,2599,2599,2606,2619,2626,2633,2639,2639,2646,2646,2646,2646,2646,2639,2633,2633,2633,2633,2639,2639,2646,2653,2653,2660,2660,2660,2660,2653,2653,2653,2646,2646,2646,2653,2653,2653,2660,2660,2667,2674,2674,2674,2674,2667,2667,2667,2667,2667,2681,2681,2681,2681,2681,2681,2681,2688,2681,2688,2695,2702,2702,2702,2695,2695,2709,2709,2717,2717,2717,2717,2724,2724,2724,2731,2731,2731,2739,2731,2739,2739,2731,2731,2724,2709,0,0,0,1837,1827,1824,1824,1821,1824,1827,1830,1827,1808,0,0,1482,1482,1482,1482,1478,1474,1465,1459,1447,0,0,0,0,1264,1261,1256,1252,1248,1245,1244,1244,1239,1236,1233,1230,1229,1229,1226,1223,1220,1216,1213,0,0,0,0,0,0,0,0,0,0,0,0,0,0,0,0,0,0,0,0,0,0,0,0,0,1039,1038,1038,1037,1036,1036,0,0,984,976,967,958,945,936,930,927,923,922,920,918,917,916,915,914,914,914,914,913,913,913,911,909,908,0,0,0,0,0,805,801,795,790,785,782,780,775,773,769,765,763,760,756,753,0,0,0,0,0
0,0,0,0,0,0,0,0,0,0,0,0,0,0,0,0,0,0,0,0,0,0,0,0,0,0,0,0,0,0,1603,1614,1619,1619,1621,1624,1621,1624,1626,1629,1634,1637,0,0,0,0,0,2106,2097,2089,2089,2089,2097,2106,2106,0,2491,2497,2504,2504,2510,2516,2522,2522,2522,2522,2516,2516,2522,2522,2522,2528,2522,2522,2522,2528,2528,2541,2547,2560,2560,2560,2560,2560,2560,2573,2573,2579,2586,2586,2586,2593,2593,2593,2599,2606,2606,2606,2599,2593,2593,2586,2586,2586,2593,2593,2599,2599,2606,2619,2626,2639,2639,2639,2646,2653,2646,2639,2639,2633,2633,2639,2646,2653,2660,2660,2660,2667,2660,2674,2667,2667,2660,2660,2660,2653,2653,2653,2653,2653,2660,2660,2660,2660,2667,2681,2674,2674,2681,2667,2667,2667,2667,2674,2681,2681,2681,2681,2681,2681,2681,2688,2688,2695,2702,2702,2702,2702,2695,2695,2709,2709,2717,2717,2717,2724,2731,2731,2739,2739,2739,2739,2739,2731,2739,2731,2731,2731,2731,2717,0,0,0,0,1827,1824,1824,1824,1824,0,0,0,0,0,0,1482,1480,1478,1478,1472,1467,1461,1451,1438,0,0,0,0,0,1259,1250,1245,1244,1242,1242,1242,1239,1236,1233,1229,1227,1225,1225,1222,1219,1216,0,0,0,0,0,0,0,0,0,0,0,0,0,0,0,0,0,0,0,0,1009,1010,1010,1014,1013,0,0,1026,1033,1033,1025,0,0,0,982,974,966,960,952,945,934,929,927,923,922,919,917,916,915,914,913,913,913,912,912,911,909,908,906,0,0,0,0,0,808,802,794,789,784,781,779,775,773,769,765,762,760,756,0,0,0,0,0,0
0,0,0,0,0,0,0,0,0,0,0,0,0,0,0,0,0,0,0,0,0,0,0,0,0,0,0,0,0,0,0,0,1619,1621,1621,1624,1621,1621,1624,1626,1632,0,0,0,0,0,0,2106,2093,2089,2085,2085,2089,2097,2102,0,2497,2497,2504,2510,2516,2522,2528,2528,2522,2516,2516,2516,2522,2522,2522,2535,2528,2528,2528,2535,2535,2547,2554,2573,2573,2567,2567,2560,2567,2573,2579,2579,2586,2586,2579,2586,2586,2593,2606,2606,2606,2599,2599,2593,2593,2586,2593,2599,2599,2606,2606,2612,2612,2619,2619,2633,2639,2639,2646,2653,2646,2646,2639,2633,2633,2639,2653,2660,2667,2660,2660,2667,2667,2674,2681,2681,2674,2660,2667,2660,2660,2667,2667,2660,2660,2660,2660,2667,2667,2674,2674,2674,2681,2674,2667,2667,2674,2674,2688,2688,2688,2688,2681,2681,2681,2688,2688,2695,2702,2702,2702,2695,2695,2695,2709,2724,2724,2724,2731,2731,2739,2739,2739,2739,2731,2731,2739,2739,2739,2731,2739,2731,2746,2739,0,0,0,0,0,0,0,0,0,0,0,0,0,0,0,1495,1489,1482,1478,1467,1461,1451,1436,1428,0,0,0,0,0,1256,1245,1242,1241,1239,1239,1241,1239,1238,1235,1230,1226,1223,1222,1220,0,0,0,0,0,0,0,0,0,0,0,0,0,0,1028,1027,1023,0,1012,1008,1007,1007,1008,1007,1006,1007,1007,1007,1010,1014,1021,1019,1015,1006,0,0,981,973,963,960,955,949,945,933,930,927,925,922,920,917,917,915,913,913,911,910,910,909,908,907,905,903,0,0,0,0,810,803,795,788,783,781,779,775,772,768,764,761,758,0,0,0,0,0,0,0
0,0,0,0,0,0,0,0,0,0,0,0,0,0,0,0,0,0,0,0,0,0,0,0,0,0,0,0,0,0,0,0,0,0,0,0,0,0,0,0,0,0,0,0,0,0,0,0,2110,2093,2085,2089,2093,2102,2115,0,2497,2504,2510,2510,2522,2528,2535,2528,2522,2516,2516,2516,2522,2528,2528,2535,2528,2528,2535,2535,2541,2541,2554,2567,2573,2567,2567,2567,2567,2573,2579,2586,2586,2579,2579,2586,2593,2599,2606,2606,2606,2606,2599,2599,2593,2586,2593,2599,2606,2612,2612,2612,2612,2612,2619,2619,2633,2633,2639,2646,2646,2646,2639,2633,2633,2646,2660,2660,2674,2667,2660,2660,2667,2674,2674,2674,2667,2660,2667,2660,2660,2667,2674,2667,2667,2667,2660,2667,2674,2674,2674,2667,2681,2674,2674,2667,2674,2674,2688,2695,2688,2688,2688,2681,2688,2688,2688,2688,2695,2695,2702,2702,2695,2702,2709,2724,2724,2724,2724,2724,2731,2739,2731,2739,2731,2731,2731,2739,2731,2731,2739,2739,2746,2753,0,0,0,0,0,0,0,0,0,0,0,0,0,0,0,1502,1493,1487,1476,1463,1445,1436,1428,1420,0,0,0,0,1267,1256,1244,1239,1238,1238,1238,1238,1238,1236,1233,1230,1226,1220,1217,1213,0,0,0,0,0,0,0,0,0,0,0,0,0,1023,1024,1022,1019,1016,1007,1006,1005,1005,1006,1005,1004,1005,1004,1004,1005,1006,1006,1006,1006,1003,1002,996,0,967,962,958,954,950,945,939,932,930,928,926,922,919,917,915,914,913,911,910,909,908,908,906,904,902,0,0,0,0,808,803,795,788,784,781,778,774,771,766,763,760,756,753,0,0,0,0,0,0
0,0,0,0,0,0,0,0,0,0,0,0,0,0,0,0,0,0,0,0,0,0,0,0,0,0,0,0,0,0,0,0,0,0,0,0,0,0,0,0,0,0,0,0,0,0,0,0,0,0,0,2097,2102,2115,0,0,0,2510,2516,2516,2522,2528,2528,2535,2528,2528,2522,2522,2522,2528,2528,2535,2535,2535,2541,2535,2541,2547,2560,2573,2586,2579,2567,2573,2567,2573,2579,2586,2586,2579,2586,2593,2599,2606,2612,2606,2606,2606,2599,2606,2599,2599,2606,2606,2612,2619,2619,2619,2612,2612,2619,2619,2626,2633,2639,2653,2646,2646,2646,2639,2639,2646,2660,2660,2667,2660,2660,2660,2667,2674,2674,2674,2667,2660,2667,2667,2667,2674,2674,2667,2667,2667,2667,2674,2674,2674,2667,2667,2688,2688,2688,2688,2688,2688,2688,2702,2695,2688,2688,2688,2688,2688,2688,2695,2695,2702,2702,2702,2702,2709,2717,2724,2731,2724,2724,2724,2731,2731,2731,2731,2731,2731,2739,2739,2731,2731,2739,2739,2746,0,0,0,0,0,0,0,0,0,0,0,0,0,0,0,0,0,0,1478,1472,1445,1428,1422,1418,0,0,0,0,0,1266,1258,1245,1242,1241,1241,1241,1239,1238,1236,1235,1230,1226,1219,1214,1209,0,0,0,0,0,0,0,0,0,0,0,1023,1022,1021,1020,1015,1008,1005,1002,1001,1000,999,1000,1000,1000,1001,1001,1001,1001,1001,1000,1001,1002,1001,1000,995,0,967,961,957,953,950,946,942,937,933,931,929,926,923,920,917,916,913,911,910,909,908,907,906,904,902,0,0,0,811,804,801,795,788,783,780,776,773,769,765,762,757,755,750,743,0,0,0,0,0
0,0,0,0,0,0,0,0,0,0,0,0,0,0,0,0,0,0,0,0,0,0,0,0,0,0,0,0,0,0,0,0,0,0,0,0,0,0,0,0,0,0,0,0,0,0,0,0,0,0,0,0,0,0,0,0,0,0,0,0,2516,2522,0,2535,2528,2528,2522,2516,2516,2516,2522,2528,2535,2535,2541,2535,2541,2547,2573,2579,2586,2579,2573,2573,2573,2579,2586,2586,2586,2579,2586,2593,2599,2606,2612,2606,2606,2606,2599,2606,2612,2606,2612,2619,2626,2626,2633,2633,2626,2626,2619,2619,2626,2633,2639,2646,2653,2653,2653,2653,2653,2653,2653,2646,2653,2653,2653,2660,2667,2667,2667,2667,2667,2660,2667,2674,2667,2674,2674,2667,2667,2667,2667,2674,2674,2674,2667,2667,2681,2695,2695,2688,2688,2688,2695,2709,2702,2695,2695,2688,2695,2695,2695,2695,2702,2709,2709,2702,2702,2709,2724,2731,2731,2724,2724,2724,2731,2731,2731,2731,2731,2731,2731,2731,2731,2731,2731,2739,2746,0,0,0,0,0,0,0,0,0,0,0,0,0,0,0,0,0,0,1474,1463,1434,1420,1415,1411,0,0,0,0,0,1269,1261,1255,1252,1253,1253,1245,1241,1239,1238,1235,1233,1227,1219,1211,1197,1186,0,0,0,0,0,0,0,0,0,0,1019,1011,1009,1007,1003,1002,997,994,992,990,990,990,991,993,996,996,997,998,997,997,997,998,998,998,994,990,965,958,954,950,947,945,941,938,933,932,930,928,927,924,920,918,917,915,915,914,912,909,908,905,904,0,0,807,805,802,800,795,789,782,778,774,771,767,764,761,756,753,747,0,0,0,0,0,0
0,0,0,0,0,0,0,0,0,0,0,0,0,0,0,0,0,0,0,0,0,0,0,0,0,0,0,0,0,0,0,0,0,0,0,0,0,0,0,0,0,0,0,0,0,0,0,0,0,0,0,0,0,0,0,0,0,0,0,0,0,0,0,0,0,0,0,0,0,0,0,2510,2516,2528,2535,2535,2541,2560,2579,2586,2593,2586,2579,2586,2579,2586,2586,2586,2586,2593,2593,2599,2606,2606,2606,2606,2606,2612,2606,2612,2619,2619,2626,2633,2633,2633,2639,2639,2633,2626,2626,2619,2626,2626,2633,2646,2646,2653,2646,2660,2660,2653,2653,2653,2653,2653,2660,2660,2667,2667,2660,2653,2653,2660,2660,2667,2667,2674,2674,2674,2674,2667,2674,2681,2681,2681,2674,2667,2681,2688,2695,2695,2688,2688,2688,2702,2702,2695,2695,2688,2695,2695,2702,2702,2709,2709,2709,2709,2709,2717,2731,2731,2731,2724,2724,2724,2731,2731,2731,2731,2731,2739,2739,2739,2731,2731,2731,2739,2746,0,0,0,0,0,0,0,0,0,0,0,0,0,0,0,0,0,0,1459,1432,1424,1413,1407,1401,0,0,1306,1296,1289,1280,1267,1262,1262,1262,1259,1252,1244,1241,1238,1235,1235,1230,1222,1210,1192,1185,1178,1174,0,0,0,0,0,0,0,1016,1010,1004,1003,1000,995,993,990,989,987,985,984,982,983,986,989,990,992,994,994,996,996,996,997,996,993,990,976,959,953,947,945,941,937,934,933,931,930,928,927,924,922,920,919,917,0,917,916,914,911,908,907,909,0,801,801,800,798,794,791,783,777,773,771,767,764,760,755,752,0,0,0,0,0,0,0
0,0,0,0,0,0,0,0,0,0,0,0,0,0,0,0,0,0,0,0,0,0,0,0,0,0,0,0,0,0,0,0,0,0,0,0,0,0,0,0,0,0,0,0,0,0,0,0,0,0,0,0,0,0,0,0,0,0,0,0,0,0,0,0,0,0,0,0,0,0,0,0,0,0,0,0,0,0,0,2593,2593,2593,2593,2593,2586,2593,2593,2586,2593,2599,2606,2606,2612,2612,2612,2606,2599,2606,2606,2612,2633,2626,2633,2633,2633,2633,2639,2639,2633,2633,2633,2626,2633,2633,2633,2646,2646,2646,2646,2653,2653,2653,2653,2653,2653,2660,2667,2667,2667,2667,2660,2653,2660,2660,2667,2667,2667,2674,2674,2674,2667,2667,2674,2674,2674,2674,2674,2674,2688,2695,2695,2695,2688,2688,2688,2695,2702,2695,2695,2695,2695,2702,2702,2702,2702,2709,2709,2709,2717,2724,2731,2731,2724,2724,2724,2731,2731,2731,2731,2731,2731,2739,2739,2731,2731,2731,2731,2739,2746,0,0,0,0,0,0,0,0,0,0,0,0,0,0,0,0,1474,1459,1432,1424,1420,1407,1403,1391,1332,1319,1314,1311,1301,1293,1278,1269,1270,1269,1266,1259,1247,1241,1236,1235,1235,1232,1225,1210,1192,1186,1178,0,0,0,0,0,1020,1017,1014,1010,1006,1002,1000,996,991,989,987,985,982,978,977,975,975,976,976,981,988,990,992,993,994,994,995,994,992,989,978,959,952,945,942,936,933,931,930,928,928,927,924,922,920,919,919,918,921,919,917,917,915,913,913,916,0,796,799,798,796,794,791,782,775,773,771,767,764,760,755,751,0,0,0,0,0,0,0
0,0,0,0,0,0,0,0,0,0,0,0,0,0,0,0,0,0,0,0,0,0,0,0,0,0,0,0,0,0,0,0,0,0,0,0,0,0,0,0,0,0,0,0,0,0,0,0,0,0,0,0,0,0,0,0,0,0,0,0,0,0,0,0,0,0,0,0,0,0,0,0,0,0,0,0,0,0,0,0,0,0,2593,0,2593,2593,2593,2593,2593,2599,2612,2612,2612,2612,2606,2599,2599,2612,2612,2619,2633,2633,2633,2639,2639,2639,2639,2639,2639,2639,2633,2633,2633,2633,2633,2639,2639,2639,2639,2646,2653,2653,2653,2660,2653,2660,2667,2667,2667,2667,2660,2660,2660,2667,2667,2667,2667,2674,2674,2674,2667,2667,2674,2674,2674,2674,2674,2674,2681,2681,2681,2681,2674,2681,2688,2688,2695,2688,2695,2695,2702,2702,2702,2709,2709,2709,2717,2717,2717,2724,2739,2739,2731,2731,2724,2731,2731,2731,2731,2731,2739,2739,2739,2739,2731,2731,2731,2746,2753,0,0,0,0,0,0,0,0,0,0,0,0,0,0,0,0,1467,1441,1426,1422,1417,1407,1399,1384,0,1325,1318,1316,1309,1299,1289,1278,1273,1270,1269,1264,1248,1241,1235,1233,1232,1230,0,0,1190,1186,0,0,0,1029,1027,1023,1020,1017,1013,1008,1005,1001,999,995,991,989,986,983,980,977,976,974,973,974,973,973,974,982,989,991,991,992,993,992,990,988,976,0,953,945,939,934,931,928,927,924,922,922,920,918,917,917,917,917,921,920,0,917,915,913,914,917,0,0,0,0,799,795,791,782,776,773,771,768,765,762,757,0,0,0,0,0,0,0,0
0,0,0,0,0,0,0,0,0,0,0,0,0,0,0,0,0,0,0,0,0,0,0,0,0,0,0,0,0,0,0,0,0,0,0,0,0,0,0,0,0,0,0,0,0,0,0,0,0,0,0,0,0,0,0,0,0,0,0,0,0,0,0,0,0,0,0,0,0,0,0,0,0,0,0,0,0,0,0,0,0,0,0,0,0,0,2593,2593,2599,2606,2619,2619,2619,2612,2606,2599,2599,2606,2619,2626,2633,2639,2633,2633,2639,2639,2639,2639,2639,2639,2633,2633,2633,2633,2626,2633,2639,2639,2639,2646,2646,2653,2653,2653,2653,2653,2660,2667,2674,2674,2667,2667,2667,2667,2667,2667,2667,2674,2674,2674,2674,2674,2674,2674,2681,2674,2674,2681,2688,2688,2681,2681,2674,2681,2688,2681,2688,2688,2688,2695,2695,2702,2702,2702,2709,2709,2717,2717,2717,2724,2731,2731,2731,2731,2724,2731,2731,2731,2731,2739,2739,2746,2739,2739,2739,2739,2746,2753,2753,0,0,0,0,0,0,0,0,0,0,0,0,0,0,0,0,1436,1426,1420,1417,1415,1407,1399,1382,0,0,1323,1316,1309,1294,1288,1280,1269,0,1262,0,1232,1219,1219,1223,1222,0,0,0,0,1045,1044,1040,1035,1030,1026,1023,1021,1020,1018,1012,1007,1001,998,993,989,987,984,982,980,976,975,973,972,972,970,970,970,972,973,0,989,990,990,990,989,985,975,960,953,945,939,933,929,926,924,922,920,919,917,917,916,914,913,912,912,913,914,915,912,908,908,0,0,0,0,0,800,796,791,783,779,775,772,769,765,763,757,0,0,0,0,0,0,0,0
0,0,0,0,0,0,0,0,0,0,0,0,0,0,0,0,0,0,0,0,0,0,0,0,0,0,0,0,0,0,0,0,0,0,0,0,0,0,0,0,0,0,0,0,0,0,0,0,0,0,0,0,0,0,0,0,0,0,0,0,0,0,0,0,0,0,0,0,0,0,0,0,0,0,0,0,0,0,0,0,0,0,0,0,0,0,0,0,2593,2606,2619,2619,2619,2612,2612,2606,2606,2612,2619,2626,2633,2639,2633,2633,2639,2639,2639,2639,2639,2639,2633,2633,2633,2626,2626,2633,2639,2639,2646,2653,2653,2660,2660,2653,2653,2653,2653,2667,2667,2667,2667,2667,2667,2667,2667,2667,2667,2667,2674,2674,2674,2674,2681,2674,2681,2681,2674,2681,2695,2695,2688,2688,2681,2681,2688,2688,2688,2688,2688,2702,2702,2702,2702,2702,2709,2709,2717,2717,2709,2724,2724,2731,2731,2724,2731,2731,2739,2739,2739,2746,2746,2746,2746,2739,2739,2739,2746,2753,2753,0,0,0,0,0,0,0,0,0,0,0,0,0,0,0,0,1428,1424,1420,1417,1413,1405,1395,0,0,0,0,0,0,1293,0,0,0,0,0,1227,1220,1213,1213,0,0,0,0,0,1046,1046,1044,1041,1037,1034,1029,1026,1024,1022,1020,1014,1007,999,994,990,988,986,983,980,978,976,974,973,972,971,968,967,964,963,963,0,0,983,987,988,987,983,976,964,952,944,0,0,927,924,922,920,919,917,916,915,913,910,908,905,904,904,904,904,903,902,903,902,0,0,0,0,0,796,791,783,780,775,772,769,765,763,0,0,0,0,0,0,0,0,0
0,0,0,0,0,0,0,0,0,0,0,0,0,0,0,0,0,0,0,0,0,0,0,0,0,0,0,0,0,0,0,0,0,0,0,0,0,0,0,0,0,0,0,0,0,0,0,0,0,0,0,0,0,0,0,0,0,0,0,0,0,0,0,0,0,0,0,0,0,0,0,0,0,0,0,0,0,0,0,0,0,0,0,0,0,0,0,0,2599,2612,2626,2619,2619,2612,2612,2606,2606,2612,2626,2626,2633,2639,2633,2633,2639,2639,2646,2646,2646,2639,2633,2633,2639,2633,2633,2639,2646,2646,2653,2653,2653,2660,2660,2660,2653,2653,2653,2660,2667,2667,2674,2674,2674,2674,2667,2667,2667,2667,2674,2674,2674,2674,2674,2681,2688,2688,2681,2681,2688,2688,2681,2681,2674,2681,2688,2688,2688,2688,2688,2695,2702,2702,2702,2709,2709,2717,2717,2717,2709,2724,2724,2731,2731,2724,2724,2731,2739,2739,2746,2746,2746,2746,2739,2739,2746,2739,2753,2761,0,0,0,0,0,0,0,0,0,0,0,0,0,0,0,0,1445,1428,1424,1420,1417,1413,1409,1395,0,0,0,0,0,0,0,0,0,0,0,0,1223,1219,1210,1201,0,0,0,0,1050,1047,1044,1043,1041,1039,1036,1033,1030,1028,1025,1022,1012,1003,994,990,989,986,985,982,978,977,975,974,974,972,971,970,968,963,962,962,960,961,963,973,980,981,977,973,963,952,0,0,929,926,922,921,918,917,915,914,913,909,908,906,904,903,901,900,900,900,899,897,895,892,0,0,0,0,0,790,784,781,774,772,767,765,762,756,747,0,0,0,0,0,0,0
0,0,0,0,0,0,0,0,0,0,0,0,0,0,0,0,0,0,0,0,0,0,0,0,0,0,0,0,0,0,0,0,0,0,0,0,0,0,0,0,0,0,0,0,0,0,0,0,0,0,0,0,0,0,0,0,0,0,0,0,0,0,0,0,0,0,0,0,0,0,0,0,0,0,0,0,0,0,0,0,0,0,0,0,0,0,0,0,0,2633,2633,2626,2619,2612,2612,2606,2612,2619,2633,2633,2633,2633,2633,2633,2639,2646,2646,2646,2646,2639,2639,2639,2639,2639,2639,2646,2653,2653,2660,2660,2660,2667,2667,2660,2660,2653,2653,2653,2667,2667,2674,2674,2674,2681,2674,2667,2667,2667,2667,2674,2667,2674,2681,2688,2688,2688,2681,2681,2681,2688,2681,2681,2681,2681,2688,2688,2688,2688,2688,2695,2702,2702,2702,2709,2717,2724,2717,2717,2709,2717,2724,2724,2724,2724,2731,2739,2739,2746,2753,2753,2753,2746,2739,2739,2739,2746,2753,2776,0,0,0,0,0,0,0,0,0,0,0,0,0,0,0,0,1443,1424,1422,1420,1417,1415,1407,0,0,0,0,0,0,0,0,0,0,0,0,0,0,0,0,0,0,0,0,0,1051,1048,1046,1044,1042,1041,1039,1036,1034,1029,1025,0,0,0,989,988,985,983,981,979,976,975,973,972,972,972,971,970,968,963,961,960,958,958,957,957,957,0,974,971,960,948,0,0,928,924,921,918,917,916,913,912,910,908,907,904,903,903,901,900,899,898,896,895,893,891,889,0,0,0,0,790,0,778,773,771,767,763,757,752,746,0,0,0,0,0,0,0
0,0,0,0,0,0,0,0,0,0,0,0,0,0,0,0,0,0,0,0,0,0,0,0,0,0,0,0,0,0,0,0,0,0,0,0,0,0,0,0,0,0,0,0,0,0,0,0,0,0,0,0,0,0,0,0,0,0,0,0,0,0,0,0,0,0,0,0,0,0,0,0,0,0,0,0,0,0,0,0,0,0,0,0,0,0,0,0,0,0,0,2633,2619,2612,2612,2612,2619,2626,2633,2639,2633,2633,2633,2639,2646,2646,2646,2646,2646,2646,2646,2639,2646,2646,2653,2653,2660,2660,2660,2667,2660,2660,2660,2660,2660,2660,2660,2667,2667,2667,2674,2674,2674,2674,2674,2667,2667,2667,2674,2667,2667,2667,2674,2688,2688,2688,2681,2674,2681,2688,2681,2681,2681,2681,2688,2695,2688,2688,2695,2695,2702,2702,2709,2717,2724,2731,2717,2724,2717,2717,2724,2724,2717,2717,2724,2731,2739,2746,2746,2746,2753,2746,2739,2739,2739,2746,2753,2768,0,0,0,0,0,0,0,0,0,0,0,0,0,0,0,0,1432,1420,1420,1418,1415,1415,0,0,0,0,0,0,0,0,0,0,0,0,0,0,0,0,0,0,0,0,0,1056,1055,1052,1050,1045,1043,1042,1040,1037,1035,1027,0,0,993,989,987,985,982,980,979,976,973,973,972,970,970,970,969,968,967,963,962,961,958,956,955,953,953,954,956,957,949,944,939,933,928,922,919,917,916,913,912,910,909,907,906,904,903,903,901,900,898,897,895,894,893,891,889,889,0,0,0,0,784,776,772,768,764,760,754,748,0,0,0,0,0,0,0,0
0,0,0,0,0,0,0,0,0,0,0,0,0,0,0,0,0,0,0,0,0,0,0,0,0,0,0,0,0,0,0,0,0,0,0,0,0,0,0,0,0,0,0,0,0,0,0,0,0,0,0,0,0,0,0,0,0,0,0,0,0,0,0,0,0,0,0,0,0,0,0,0,0,0,0,0,0,0,0,0,0,0,0,0,0,0,0,0,0,0,0,0,2626,2619,2619,2612,2619,2633,2639,2639,2639,2639,2639,2646,2646,2653,2646,2646,2646,2646,2646,2646,2653,2653,2660,2660,2660,2667,2667,2667,2660,2660,2660,2660,2667,2674,2674,2674,2667,2667,2667,2674,2674,2674,2674,2674,2674,2667,2674,2667,2667,2667,2674,2688,2688,2681,2681,2674,2681,2688,2681,2681,2681,2674,2681,2688,2688,2688,2695,2695,2702,2702,2709,2717,2724,2731,2717,2724,2717,2717,2724,2724,2717,2717,2724,2731,2739,2739,2739,2746,2746,2739,2739,2739,2739,2746,2761,2768,0,0,0,0,0,0,0,0,0,0,0,0,0,0,0,0,1428,1418,1418,1417,1415,1415,0,0,0,0,0,0,0,0,0,0,0,0,0,0,0,0,0,0,0,0,0,1058,1057,1055,1052,1048,1045,1044,1041,1038,1035,1023,0,993,989,987,984,982,980,978,976,974,972,971,969,968,968,967,967,967,966,964,963,962,959,957,954,953,952,951,950,949,945,942,936,932,926,921,918,917,915,913,912,909,908,906,906,904,903,902,900,899,898,897,896,895,893,891,891,890,0,0,0,0,784,775,771,767,765,761,753,746,0,0,0,0,0,0,0,0
0,0,0,0,0,0,0,0,0,0,0,0,0,0,0,0,0,0,0,0,0,0,0,0,0,0,0,0,0,0,0,0,0,0,0,0,0,0,0,0,0,0,0,0,0,0,0,0,0,0,0,0,0,0,0,0,0,0,0,0,0,0,0,0,0,0,0,0,0,0,0,0,0,0,0,0,0,0,0,0,0,0,0,0,0,0,0,0,0,0,0,0,0,0,2639,2619,2619,2626,2639,2646,2639,2639,2646,2646,2646,2653,2653,2653,2653,2653,2653,2653,2660,2660,2660,2660,2660,2667,2667,2667,2660,2660,2660,2660,2667,2681,2681,2681,2674,2667,2667,2667,2674,2674,2674,2674,2674,2674,2674,2667,2667,2674,2681,2681,2681,2681,2681,2674,2681,2688,2688,2681,2681,2681,2695,2695,2695,2695,2695,2702,2702,2702,2702,2717,2731,2731,2724,2724,2717,2717,2724,2724,2724,2724,2731,2731,2739,2746,2739,2746,2753,2746,2739,2739,2746,2753,2768,2783,0,0,0,0,0,0,0,0,0,0,0,0,0,0,0,1461,1428,1420,1420,1415,1415,0,0,0,0,0,0,0,0,0,0,0,0,0,0,0,0,0,0,0,0,0,1059,1058,1057,1056,1054,1050,1045,1043,1040,1038,0,0,995,989,987,983,980,979,978,976,975,973,971,969,967,965,964,963,963,962,962,962,962,961,961,959,956,956,954,952,950,946,945,941,935,933,928,922,919,917,916,914,913,908,907,905,904,903,902,902,901,900,898,896,896,895,893,893,892,891,0,0,0,0,784,775,772,767,764,758,752,746,740,736,0,0,0,0,0,0
0,0,0,0,0,0,0,0,0,0,0,0,0,0,0,0,0,0,0,0,0,0,0,0,0,0,0,0,0,0,0,0,0,0,0,0,0,0,0,0,0,0,0,0,0,0,0,0,0,0,0,0,0,0,0,0,0,0,0,0,0,0,0,0,0,0,0,0,0,0,0,0,0,0,0,0,0,0,0,0,0,0,0,0,0,0,1183,1190,0,0,0,0,0,0,0,2626,2626,2633,2633,2646,2646,2639,2646,2639,2646,2646,2646,2646,2646,2653,2653,2660,2660,2660,2660,2660,2660,2667,2674,2667,2660,2660,2653,2660,2674,2688,2695,2688,2681,2674,2667,2667,2674,2667,2674,2674,2674,2674,2674,2674,2674,2674,2681,2688,2688,2688,2688,2681,2681,2688,2688,2681,2688,2688,2695,2695,2695,2695,2695,2702,2702,2702,2702,2717,2731,2731,2717,2724,2724,2724,2731,2731,2724,2724,2731,2731,2739,2739,2739,2746,2746,2746,2739,2739,2746,2753,2768,2791,0,0,0,0,0,0,0,0,0,0,0,0,0,0,0,1465,1430,1426,1422,1417,1418,0,0,0,0,0,0,0,0,0,0,0,0,0,0,0,0,0,0,0,0,1069,1064,1059,1058,1056,1054,1051,1044,1041,1039,0,0,994,990,989,986,982,979,977,976,974,973,971,969,968,965,963,962,961,961,960,959,959,960,959,959,959,957,957,955,952,949,946,945,942,938,935,932,929,924,920,918,916,915,910,908,907,905,904,903,902,901,900,899,897,896,896,896,898,900,897,0,0,0,0,785,777,773,767,763,759,753,747,741,736,731,727,0,0,0,0
0,0,0,0,0,0,0,0,0,0,0,0,0,0,0,0,0,0,0,0,0,0,0,0,0,0,0,0,0,0,0,0,0,0,0,0,0,0,0,0,0,0,0,0,0,0,0,0,0,0,0,0,0,0,0,0,0,0,0,0,0,0,0,0,0,0,0,0,0,0,0,0,0,0,0,0,0,0,0,0,0,0,0,0,0,0,1177,1186,1190,0,0,0,0,0,0,0,0,2639,2633,2639,2646,2646,2660,2653,2660,2660,2653,2646,2646,2646,2660,2653,2660,2653,2660,2667,2667,2674,2674,2667,2660,2660,2660,2667,2674,2688,2695,2688,2688,2674,2667,2667,2667,2667,2674,2674,2674,2674,2674,2674,2674,2681,2681,2695,2695,2695,2688,2695,2688,2695,2695,2681,2688,2695,2695,2695,2695,2695,2702,2702,2702,2702,2702,2709,2724,2724,2717,2717,2724,2724,2731,2724,2724,2717,2731,2739,2739,2739,2746,2746,2746,2746,2746,2746,2746,2761,2776,2806,0,0,0,0,0,0,0,0,0,0,0,0,0,0,0,1447,1428,1426,1422,1418,1418,0,0,0,0,0,0,0,0,0,0,0,0,0,0,0,0,0,0,0,1069,1067,1064,1059,1057,1056,1054,1052,1044,1041,0,0,989,989,988,986,983,979,976,975,973,972,971,969,966,965,963,962,962,960,960,960,958,957,957,956,957,957,958,959,957,955,951,947,945,942,939,936,933,931,929,925,922,919,917,913,910,908,906,904,904,902,902,901,901,900,899,901,903,904,906,904,904,0,0,0,787,780,775,772,0,760,754,747,742,737,732,729,725,0,0,0
0,0,0,0,0,0,0,0,0,0,0,0,0,0,0,0,0,0,0,0,0,0,0,0,0,0,0,0,0,0,0,0,0,0,0,0,0,0,0,0,0,0,0,0,0,0,0,0,0,0,0,0,0,0,0,0,0,0,0,0,0,0,0,0,0,0,0,0,0,0,0,0,0,0,0,0,0,0,0,0,0,0,0,0,0,0,0,1177,1181,0,0,0,0,0,0,0,0,2653,2639,2646,2646,2653,2660,2653,2660,2660,2653,2646,2653,2660,2667,2660,2660,2653,2660,2667,2674,2674,2674,2667,2667,2674,2667,2674,2681,2688,2695,2695,2688,2681,2667,2667,2674,2674,2674,2681,2674,2681,2681,2681,2681,2681,2681,2695,2695,2695,2688,2688,2688,2688,2695,2681,2688,2695,2695,2695,2695,2695,2702,2702,2702,2702,2702,2709,2724,2724,2717,2724,2731,2731,2731,2731,2731,2724,2739,2746,2746,2746,2746,2746,2753,2753,2746,2746,2753,2761,2768,2799,0,0,0,0,0,0,0,0,0,0,0,0,0,0,0,1438,1426,1426,1422,1417,1417,0,0,0,0,0,0,0,0,0,0,0,0,0,0,0,0,0,0,1079,1072,1069,1066,1060,1057,1055,1053,1050,0,0,0,0,987,986,984,981,979,976,975,973,972,970,968,966,964,963,962,961,961,960,958,959,958,957,956,955,955,956,957,960,958,957,955,950,947,944,940,938,934,933,931,928,926,922,918,914,911,909,908,906,905,904,905,905,904,904,904,908,912,912,911,908,906,905,0,0,0,782,0,0,0,0,755,751,746,0,735,730,727,0,0,0
0,0,0,0,0,0,0,0,0,0,0,0,0,0,0,0,0,0,0,0,0,0,0,0,0,0,0,0,0,0,0,0,0,0,0,0,0,0,0,0,0,0,0,0,0,0,0,0,0,0,0,0,0,0,0,0,0,0,0,0,0,0,0,0,0,0,0,0,0,0,0,0,0,0,0,0,0,0,0,0,0,0,0,0,0,0,0,1171,1175,0,0,0,0,0,0,0,0,0,2646,2646,2646,2646,2660,2660,2667,2667,2660,2653,2653,2653,2660,2667,2667,2660,2667,2667,2674,2674,2674,2667,2667,2674,2681,2674,2681,2688,2695,2688,2688,2681,2667,2667,2681,2674,2681,2681,2681,2688,2688,2688,2681,2681,2688,2695,2695,2688,2688,2695,2688,2688,2695,2688,2688,2695,2695,2702,2702,2695,2702,2702,2702,2702,2702,2709,2717,2717,2717,2724,2731,2731,2739,2731,2731,2731,2739,2746,2746,2746,2746,2746,2746,2753,2746,2753,2753,2753,2761,2783,0,0,0,0,0,0,0,0,0,0,0,0,0,0,0,1432,1426,1426,1420,1417,1415,0,0,0,0,0,0,0,0,0,0,0,0,0,0,0,0,0,0,1079,1072,1068,1066,1060,1057,1055,1052,0,0,0,991,988,986,984,980,977,976,975,974,973,972,970,968,966,963,962,962,960,961,960,958,959,958,958,956,954,953,952,953,956,955,954,954,952,0,944,941,939,936,0,933,931,928,926,920,916,913,910,908,907,906,906,906,906,906,906,907,916,917,917,915,913,908,908,0,0,0,0,0,0,0,0,0,0,0,0,737,732,728,726,0,0
